ply
format ascii 1.0
element vertex 98
property float x
property float y
property float z
end_header
-5.01323 0.196569 7.59373
-6.41122 -0.171223 -4.16851
-5.5683 -0.181372 0.485128
-4.5901 0.125872 8.05761
-4.72018 0.264951 7.53648
-5.19884 0.0326251 9.31054
-4.35938 0.251205 7.72346
-3.85466 0.299153 8.49093
-4.38716 0.290693 7.88767
-7.00645 -0.682199 7.84907
-7.04006 -0.854755 7.91099
-7.07426 -0.230797 7.8896
-7.2411 -0.24426 7.93149
-7.19096 -0.255881 7.88414
-7.23996 -0.239248 8.05592
-7.20568 -0.372374 8.19773
-6.90738 -0.24638 7.84721
-7.13396 -1.00734 8.096
-2.86924 -0.080269 8.77161
-2.85646 0.382833 8.97476
-4.92851 -0.0877768 0.421248
-5.2094 0.0742648 8.36039
-6.95751 -0.452451 8.18992
-5.17383 0.014855 8.03963
-5.14673 -0.0848815 7.78155
-5.42215 0.0256207 1.51618
-3.79454 0.261623 -12.3614
-4.44953 0.057133 -15.8275
-0.854154 0.0250929 -14.7139
-4.02653 0.192092 -10.7472
-0.677161 0.055659 -12.3786
-0.178294 0.0366724 -10.7434
-2.51501 0.180562 -15.5438
0.324039 0.0696468 -9.2111
0.730703 0.10048 -9.66845
-4.55868 0.124924 -19.9677
-5.82766 0.295224 -14.1871
-4.32659 0.170691 -2.0202
-4.80434 -0.513545 5.53991
-4.78435 0.00899733 3.82761
-5.06144 -0.0322679 2.93244
-1.52177 -0.0882845 -6.64555
1.01612 0.0816915 -8.26961
1.62125 0.0288774 -10.2089
1.93849 0.0334692 -11.1428
1.79797 0.0149292 -9.7959
-3.00936 -0.0832041 8.66822
-6.56394 -0.385953 8.26986
-6.48131 -0.146944 8.20249
-2.60325 0.39399 8.5823
-2.77101 0.202795 8.57079
-1.98765 0.286566 9.12143
-5.38099 -0.187913 6.80166
-5.56018 0.204437 7.56671
-6.04666 -0.155565 8.40741
-6.34518 -0.137269 8.51855
-5.44004 -0.0545455 8.17063
-5.00152 -0.120011 2.1369
-5.22523 1.19147 6.05066
-5.70933 0.363581 -1.94655
-6.89903 0.0776777 -12.6342
-4.07819 -0.111437 6.31732
-2.99444 -0.782462 0.733744
-4.29404 0.0398941 8.24575
-6.29456 -0.390392 6.84935
-1.86886 0.17899 18.8687
-2.9221 -0.449883 7.39796
-2.09949 -0.376474 7.59571
-3.19541 -0.440799 7.1665
-3.45195 -0.414095 6.93762
-4.42181 -0.431855 7.65893
-4.43081 -0.423872 7.66747
-4.20196 -0.154895 8.89843
10.2858 -0.15852 -77.3848
-2.47041 0.362134 11.2633
-5.15064 -0.440073 7.70881
-5.76315 -0.437852 7.94453
-5.7189 -0.428532 8.03653
-5.97565 -0.445908 7.97832
-5.67309 -0.415823 8.12225
-5.57352 -0.35262 9.35975
-6.72514 -0.451939 9.89484
5.25231 -2.09431 -41.8964
-2.24874 -4.7122 -3.09522
-5.6484 -0.459983 7.63037
-3.70221 -0.217135 1.61442
-3.68461 -1.30646 4.61864
-2.32158 0.0906118 9.56267
-1.68604 0.0300164 9.9014
-2.33575 0.0820158 10.0812
-1.48151 0.0437579 10.0429
-7.68341 0.0153424 -4.92224
-1.1471 -0.941689 0.973693
-3.77108 -0.246419 1.17816
-3.401 -7.56634e-09 8.74343
-219.53 -0.762488 -1096.14
-13.1124 -0.172836 -46.7282
-6.2031 0.12044 4.43864
