ply
format ascii 1.0
element vertex 80
property float x
property float y
property float z
end_header
2.91475 0.900794 1.5984
2.54835 0.944872 2.32049
2.92617 -2.0011 1.96675
5.70028 0.847114 0.16075
7.13617 -8.09838e-08 -0.24433
6.79745 0.798467 -1.04472
5.60549 0.863009 -1.89969
7.80341 0.416836 -5.14018
8.5231 0.829487 -5.54039
8.09298 1.38439 -6.63409
5.85342 -0.453278 -12.4295
5.45979 -1.14136e-08 -12.11
10.8081 -3.64028 -7.27464
10.3933 -6.50039 -9.54782
10.3083 -6.55647 -8.591
10.8698 -6.74255 -6.50064
3.42745 -3.07428 -3.12543
16.7652 -1.25554 -15.1705
16.8514 0.974657 -11.5806
-0.251437 0.856214 -2.23796
0.643223 -4.19101 0.87528
3.59365 -3.83458 0.0941194
18.1682 0.541103 -17.1611
18.18 -1.84887 -14.5708
3.43877 -3.2776 4.00189
0.735677 3.82089 -2.51396
2.27912 4.27152 -10.5521
3.10613 -4.34111 4.21202
21.3602 -0.125887 -16.1823
19.7796 0.632937 -13.2109
0.42873 5.18635 -3.50732
6.4742 -0.459924 -14.494
6.9541 -4.25043 -0.211942
0.562817 2.84671 -0.516555
23.3475 -6.8273 -17.4105
25.4593 -7.22402 -15.7691
29.3064 -6.69075 -16.411
30.7318 -6.41538 -17.5433
40.6241 -7.33226 -12.6189
41.7981 -7.49186 -11.5249
42.8125 -7.45692 -7.68745
43.9846 -7.253 -7.46402
47.3009 -7.58497 -7.14432
47.9304 -8.05012 -7.95419
48.2496 -8.3129 -8.9107
50.4593 -8.71156 -8.1105
50.173 -7.56699 -5.51073
51.6344 -8.52104 -4.00349
51.7198 -8.61856 -3.80834
52.3204 -8.83735 -6.68074
51.2823 -7.73826 3.35311
50.3722 -7.18744 0.0671945
50.8496 -6.61545 -0.870546
48.9327 -6.21741 -6.93741
51.8506 -5.7846 5.02571
51.7611 -5.29679 4.22371
52.1439 -5.66075 5.53925
51.9279 -5.07847 5.8037
51.8765 -2.96032 5.23928
53.2096 -0.921889 5.03541
51.4431 0.396962 4.8349
52.9285 -0.0132456 4.94465
51.5687 1.69842e-07 5.76429
49.6722 1.10792 4.66783
52.5341 0.31449 6.47637
50.0853 0.744261 2.02276
0.506873 5.15757 -3.42347
45.8557 0.18515 -29.2643
40.3148 -0.322435 -28.7516
35.2784 -1.29464 -33.3883
49.5673 -0.757516 -14.8151
40.3829 1.27048 -7.97748
50.8018 -0.905382 -8.40753
27.5402 0.689666 -13.0859
29.7414 -1.86493 -21.0004
27.3221 -1.68518 -19.7128
18.9377 -2.31446 -21.8717
18.7282 -1.42706 -26.4805
14.2282 -1.57066 -25.935
8.58968 -0.886709 -25.1464
