ply
format ascii 1.0
element vertex 91
property float x
property float y
property float z
end_header
2.08846 0.00213699 8.10382
1.22173 0.157476 8.78007
1.17104 0.178439 8.5063
1.10728 0.300658 8.01206
1.97094 -0.165009 7.73005
3.26581 -0.0307976 7.1349
7.0223 0.0784267 6.24667
6.38275 -3.29153e-08 6.39658
7.65317 0.252181 6.29512
7.94305 -0.0605092 5.88456
10.7 0.0374311 5.63271
10.4587 0.105285 5.8764
11.3086 -0.231836 5.62879
12.3586 0.177243 6.699
12.3107 0.040215 6.47714
12.9779 0.0784022 7.97327
12.8382 0.190324 8.66218
13.5719 0.131269 8.95841
14.146 0.0891589 8.92286
14.3509 0.00397304 8.96275
14.249 -0.0499361 8.68812
14.6465 -0.0309755 10.1126
15.1256 -0.127893 9.46946
14.7469 0.169475 10.886
14.1217 0.204568 8.95624
14.1547 0.0474041 8.707
14.2809 0.419033 9.45185
14.7862 0.32313 11.2452
14.7821 0.112752 12.1892
15.0456 0.323316 12.5028
15.1033 0.558248 12.5885
15.1523 0.706996 12.9937
14.2794 0.643522 9.31719
15.2149 0.585043 13.1804
4.59767 2.34073 5.83384
15.2822 0.662547 13.2238
0.484024 0.682907 8.51474
9.274 -0.208156 8.91642
0.894532 2.12455 7.31223
0.946293 2.575 7.79617
0.749963 2.48363 7.63186
15.3624 1.45374 13.1993
15.3539 1.51902 13.2027
15.3243 0.815636 13.2502
0.680205 1.56835 7.01911
0.725288 2.42914 9.75331
2.33566 2.5225 7.82609
-0.353904 3.20166 9.51189
-0.109505 2.4105 11.1676
-4.24042 2.39596 5.12405
3.20745 2.62641 7.73037
-0.50466 1.89779 7.6238
-0.445048 2.15033 10.7609
-0.652223 1.9784 11.0366
-0.3129 2.24374 11.9515
-1.52154 2.23405 11.0385
-3.87883 4.50124 4.73946
0.308371 1.14161 7.60032
-0.497783 1.90264 7.65047
-0.693136 0.0531409 6.84238
3.15768 1.87169 6.47379
3.2863 1.71213 6.5753
2.38592 1.30258 9.63701
3.76789 2.50195 6.09517
3.93142 2.61359 7.59289
-0.507287 1.90316 7.66377
4.1915 2.26715 6.8345
4.06533 2.15027 7.03254
-2.26868 1.93791 12.4378
4.10905 1.9526 6.79956
-2.66194 2.16576 11.7914
-2.63678 2.19527 12.1419
-2.54047 2.19561 12.2852
-2.68986 1.7671 11.5111
-2.72105 1.48888 11.6103
-2.69479 1.23912 11.7368
-2.60011 0.905122 11.9336
-2.43197 0.648088 12.3091
15.5619 1.6794 13.1596
15.5285 5.40239 14.4198
29.1719 15.0625 -11.7622
22.7221 2.61194 6.50971
20.9899 2.99872 4.09479
19.3431 3.06821 4.36511
19.1722 2.93592 2.59903
19.5748 2.92864 2.2418
19.0922 2.94226 2.69478
17.008 3.33011 5.06802
37.0917 2.96674 -36.7856
22.2227 2.59602 6.9686
22.2102 2.70296 7.49429
