ply
format ascii 1.0
element vertex 404
property float x
property float y
property float z
property float nx
property float ny
property float nz
property uchar diffuse_red
property uchar diffuse_green
property uchar diffuse_blue
property float psz
end_header
1.14848995209 -0.0663926973939 4.04267978668 -0.491780012846 0.240314006805 -0.836899995804 51 47 54 0.0135996947065
1.69002997875 -0.846574008465 3.79202008247 0.026352500543 0.378937989473 -0.925046980381 143 92 87 0.0136018535122
1.5909999609 -0.173355996609 3.88539004326 -0.191479995847 0.204403996468 -0.959976017475 45 31 27 0.013602620922
1.60433995724 -0.173355996609 3.88273000717 -0.191478997469 0.204403996468 -0.959976017475 46 32 29 0.013602620922
1.5981400013 -0.161823004484 3.8864300251 -0.191478997469 0.204403996468 -0.959976971149 44 30 26 0.0136041035876
0.961947977543 -0.995325028896 3.80297994614 -0.0652830973268 -0.0339699983597 -0.997287988663 177 125 121 0.0136042563245
0.981247007847 -0.983420014381 3.80572009087 -0.0652673020959 -0.0348779000342 -0.997258007526 163 110 106 0.0136050004512
0.994333028793 -0.983542978764 3.80943989754 -0.0571602992713 -0.0311066005379 -0.997879981995 164 110 106 0.0136050004512
1.4450199604 -0.564149022102 3.78134989738 -0.203127995133 -0.308643013239 -0.929235994816 117 78 80 0.0136063406244
1.10763001442 -0.977486014366 3.77846002579 -0.0250668991357 0.0735362023115 -0.996977984905 166 113 110 0.0136069431901
1.22967004776 -0.85653501749 3.81840991974 -0.387324005365 -0.0901452973485 -0.917526006699 172 121 117 0.0136080048978
1.63785004616 -0.598748981953 3.7538599968 0.319065004587 -0.380216002464 -0.868121027946 136 86 80 0.013609463349
1.62439000607 -0.597851991653 3.75566005707 0.315531998873 -0.382160007954 -0.868557989597 134 84 77 0.013609463349
1.64064002037 -0.678911983967 3.80197000504 0.116529002786 0.185069993138 -0.975791990757 142 92 88 0.0136095890775
1.44986999035 -0.671724021435 3.82786989212 0.00765672000125 -0.250140011311 -0.968178987503 152 100 95 0.0136096933857
1.44307994843 -0.660113990307 3.82578992844 0.00763382017612 -0.250099003315 -0.968190014362 159 108 102 0.0136096933857
1.67990005016 -0.726090013981 3.8021800518 -0.0406358018517 0.248729005456 -0.967719972134 133 82 79 0.0136098423973
1.8062800169 -0.285389989614 3.52866005898 0.144532993436 0.388383001089 -0.910093009472 36 35 43 0.0136106563732
1.81989002228 -0.285302013159 3.52875995636 0.144538000226 0.388393998146 -0.910086989403 91 96 116 0.0136106563732
1.64883995056 -0.846116006374 3.78747010231 0.0153256002814 0.385807007551 -0.922451972961 151 99 98 0.0136127481237
0.587037026882 -0.736401975155 3.85946989059 0.0818059965968 0.382158994675 -0.920467972755 159 107 101 0.0136129809543
0.580569028854 -0.747615993023 3.85525989532 0.0818080976605 0.382158994675 -0.920467972755 177 125 117 0.0136129809543
0.59329199791 -0.968810021877 3.84608006477 -0.171535998583 0.0346820987761 -0.984566986561 164 109 103 0.0136139439419
1.74711000919 -0.836713016033 3.78043007851 -0.0395391993225 0.246126994491 -0.968430995941 143 93 91 0.0136141423136
1.55216002464 -0.788067996502 3.77201008797 -0.0387589000165 0.241752997041 -0.969563007355 160 108 105 0.0136144598946
1.54439997673 -0.77715998888 3.77449011803 -0.0345540009439 0.241971999407 -0.969667971134 150 97 95 0.0136144598946
1.91457998753 -0.715677976608 3.26954007149 -0.394225001335 -0.371901988983 -0.840402007103 172 114 101 0.0136160505936
1.92186999321 -0.72672098875 3.26633000374 -0.390002995729 -0.384526014328 -0.836682975292 187 129 118 0.0136160505936
0.649891972542 -0.600129008293 3.87193989754 0.0800855010748 0.380773991346 -0.921194016933 140 97 96 0.0136181842536
1.62136995792 -0.988779008389 3.78918004036 0.107027001679 -0.379886001348 -0.918820977211 143 91 90 0.0136181972921
1.6135699749 -0.978034973145 3.79221010208 0.105526000261 -0.382477998734 -0.917918980122 153 102 101 0.0136181972921
0.57183599472 -0.690855979919 3.87414002419 0.0814568996429 0.381458997726 -0.920790016651 158 103 95 0.0136188324541
1.66316998005 -0.823836028576 3.78659009933 -0.0518588013947 0.25055000186 -0.966714024544 144 94 89 0.0136193335056
0.539622008801 -0.0913911983371 4.11550998688 -0.290508002043 -0.462911009789 -0.837448000908 54 44 49 0.0136199584231
0.527127981186 -0.0912365987897 4.1100897789 -0.304235011339 -0.466719001532 -0.830429971218 56 47 54 0.0136199584231
1.68722999096 -0.737478017807 3.80524992943 -0.0405597016215 0.248707994819 -0.967728972435 139 89 86 0.0136207249016
0.643346011639 -0.612450003624 3.86929011345 0.0827132984996 0.381702005863 -0.920576989651 139 96 96 0.0136207630858
0.65691202879 -0.612450003624 3.87051010132 0.0827113986015 0.381702005863 -0.920576989651 146 100 96 0.0136207630858
1.58841001987 -0.356061011553 3.3964600563 0.0258383005857 0.542743980885 -0.839501023293 94 94 115 0.0136220082641
1.72111999989 -1.16314995289 3.38577008247 -0.455567985773 -0.181531995535 -0.871495008469 127 77 76 0.0136222494766
1.71607995033 -1.17474997044 3.39083003998 -0.455567985773 -0.181531995535 -0.871495008469 129 79 76 0.0136222494766
1.37809002399 -0.670747995377 3.81623005867 0.00602702004835 -0.249992996454 -0.9682289958 162 111 107 0.0136237423867
1.36468994617 -0.668734014034 3.81482005119 0.0253222007304 -0.249483004212 -0.968047976494 165 113 110 0.0136237423867
0.909681975842 -0.383064001799 3.98286008835 0.0468613989651 0.459205001593 -0.887094020844 47 45 56 0.0136241931468
1.52407002449 -1.00084996223 3.77441000938 -0.0971964970231 -0.452861011028 -0.886268019676 172 121 117 0.0136277833953
1.53021001816 -0.988833010197 3.77251005173 0.102600000799 -0.378948003054 -0.919713020325 148 97 93 0.0136277833953
0.705024003983 -0.701921999454 3.85494995117 -0.306748986244 0.331155002117 -0.892323970795 159 108 103 0.013628911227
0.633342981339 -0.946569979191 3.84714007378 -0.170822992921 0.0329357981682 -0.984750986099 163 108 103 0.0136305363849
0.843759000301 -0.245096996427 3.99835991859 -0.195206999779 0.532123029232 -0.823857009411 48 46 55 0.013631737791
0.843028008938 -0.231549993157 3.99703001976 -0.195194005966 0.532148003578 -0.823844015598 49 47 55 0.013631737791
1.67811000347 -0.0300625991076 3.44987988472 0.19187399745 0.549031019211 -0.813480019569 34 25 30 0.0136341871694
1.53925001621 -0.561842024326 3.78293991089 0.069420799613 -0.00438487017527 -0.997578024864 118 76 80 0.0136361503974
1.53282999992 -0.550311028957 3.77951002121 0.112212002277 -0.250921010971 -0.96148198843 108 74 83 0.0136361503974
1.58524000645 -0.645964026451 3.82283997536 0.0175899006426 -0.247759997845 -0.968662023544 141 92 87 0.0136374440044
0.62942302227 -0.61067199707 3.88262009621 0.0803679972887 0.381307989359 -0.920948028564 133 92 93 0.0136380763724
0.615836977959 -0.61067199707 3.88142991066 0.080366499722 0.381307989359 -0.920948028564 138 93 92 0.0136380763724
1.23666000366 -1.05583000183 3.80788993835 0.13194000721 -0.0299460999668 -0.990804970264 171 118 114 0.0136392749846
1.53227996826 -0.670356988907 3.80379009247 0.00712580000982 -0.25271999836 -0.967513024807 142 87 84 0.0136397499591
1.53908002377 -0.682156980038 3.8045399189 0.0092457998544 -0.251069009304 -0.967925012112 151 98 97 0.0136397499591
1.28930997849 -1.07351994514 3.79060006142 0.255845993757 -0.136094003916 -0.95709002018 173 121 117 0.0136400517076
1.7039899826 -1.17474997044 3.39715003967 -0.455567985773 -0.181531995535 -0.871495008469 133 83 78 0.0136422030628
1.4630600214 -0.670310020447 3.81319999695 0.173879995942 -0.216565996408 -0.9606590271 153 101 97 0.0136426929384
1.47019994259 -0.681852996349 3.81457996368 0.0168750006706 -0.248190999031 -0.968563973904 151 99 96 0.0136426929384
1.69909000397 -0.548825979233 3.76384997368 0.176960006356 -0.295065999031 -0.938947021961 102 68 71 0.0136448331177
0.778035998344 -0.246452003717 4.03574991226 -0.18548899889 0.527571976185 -0.829012989998 77 81 90 0.0136477435008
0.778459012508 -0.259956002235 4.03382015228 -0.184869006276 0.527225971222 -0.829370975494 73 77 85 0.0136477435008
1.53250002861 -0.32591098547 3.34479999542 0.0797766968608 -0.0828932970762 -0.993359982967 26 16 20 0.0136488573626
1.70729994774 -0.611141979694 3.82595992088 -0.0243982002139 0.248870000243 -0.968230009079 133 86 82 0.0136491954327
1.69386994839 -0.61085999012 3.82353997231 -0.0382892005146 0.244944006205 -0.968780994415 131 85 81 0.0136491954327
0.90870398283 -0.360778003931 3.98971009254 -0.301367014647 0.410537004471 -0.860602974892 43 39 50 0.0136492867023
0.901879012585 -0.371753007174 3.98532009125 0.0471118018031 0.459026008844 -0.887172996998 31 27 38 0.0136492867023
0.706553995609 -0.678906023502 3.86530995369 -0.307507008314 0.331007987261 -0.892117023468 157 107 103 0.0136495269835
0.69995701313 -0.690845012665 3.86580991745 -0.181933000684 0.233831003308 -0.955103993416 155 104 101 0.0136495269835
1.71103000641 -1.18638002872 3.39588999748 -0.455567985773 -0.181531995535 -0.871495008469 130 79 76 0.0136514967307
1.13186001778 -0.662011027336 3.79502010345 -0.496109992266 0.000321745988913 -0.868260025978 158 107 102 0.0136516997591
1.11909997463 -0.661841988564 3.79987001419 -0.495599985123 0.00244929990731 -0.868547976017 158 106 99 0.0136516997591
1.22976005077 -1.09126996994 3.8080201149 0.13194000721 -0.0299462992698 -0.990804970264 177 124 119 0.0136522389948
1.36438000202 -0.981189012527 3.80409002304 0.0302997007966 -0.250081986189 -0.967751026154 166 114 110 0.0136553570628
1.74709999561 -1.15021002293 3.35291004181 -0.455163985491 -0.182485997677 -0.871506989002 145 128 157 0.013656983152
1.547549963 -0.746704995632 3.7931098938 -0.0332036018372 0.2435670048 -0.969316005707 153 100 97 0.0136589482427
1.83478999138 -0.74857199192 3.30934000015 -0.682488024235 -0.413616001606 -0.602604985237 173 118 111 0.0136592267081
0.603106021881 -0.632951974869 3.87323999405 0.0772847980261 0.378320991993 -0.922442018986 146 100 100 0.0136598376557
1.69363999367 -0.63380497694 3.81772994995 -0.03829190135 0.244944006205 -0.968780994415 139 87 82 0.0136605966836
0.594475984573 -0.747781991959 3.85812997818 0.0821980983019 0.382048994303 -0.920478999615 180 129 121 0.0136615615338
0.811273992062 -0.726507008076 3.82382011414 -0.311188012362 0.331910014153 -0.890504002571 161 110 106 0.0136634595692
1.84029996395 -0.68329501152 3.2842400074 -0.609486997128 -0.251780986786 -0.751752972603 178 120 112 0.0136635042727
0.59768897295 -0.380823999643 3.42005991936 -0.153051003814 -0.404812991619 -0.901499986649 74 76 85 0.0136643098667
0.591624975204 -0.391938000917 3.4251999855 -0.153065994382 -0.404817998409 -0.901494979858 86 89 104 0.0136643098667
1.65927994251 -0.476006001234 3.37264990807 -0.115864001215 -0.574492990971 -0.810266971588 72 74 97 0.013665269129
1.81509995461 -1.18818998337 3.03525996208 -0.133302003145 -0.0615040995181 -0.989165008068 183 130 118 0.0136656686664
1.3310199976 -0.990839004517 3.79398989677 0.0409773997962 -0.247424006462 -0.968039989471 165 112 110 0.0136674679816
0.608992993832 -1.07415997982 3.83759999275 -0.211802005768 0.258154004812 -0.942601025105 165 113 108 0.0136680593714
1.62040996552 -0.0827924013138 3.90324997902 -0.0683341994882 0.103229999542 -0.992307007313 45 28 23 0.013669158332
1.75701999664 -1.12449002266 3.32990002632 -0.408174991608 0.318731993437 -0.855454981327 96 92 107 0.0136706642807
1.75050997734 -1.13594996929 3.33352994919 -0.408194988966 0.318740993738 -0.855441987514 116 111 132 0.0136706642807
2.18577003479 -0.285784989595 3.55940008163 -0.225969001651 0.00486698979512 -0.974123001099 110 117 115 0.0136706968769
1.94445002079 -0.80361700058 3.26739001274 -0.256092995405 0.0910016000271 -0.962359011173 172 112 103 0.0136713935062
0.831517994404 -0.253452986479 4.0089302063 -0.193231001496 0.522140026093 -0.830681979656 43 37 42 0.0136749679223
0.830887019634 -0.240155994892 4.01206016541 -0.194950997829 0.533977985382 -0.822715997696 46 37 43 0.0136749679223
1.60078001022 -0.338097989559 3.40713000298 0.0263218004256 0.542711019516 -0.839506983757 30 22 29 0.0136755118147
1.60092997551 -0.350172013044 3.4007101059 0.0258389003575 0.542743980885 -0.839501023293 71 69 84 0.0136755118147
1.6688400507 -0.835974991322 3.79959011078 0.0252535007894 0.381370007992 -0.924077987671 138 85 82 0.0136757949367
1.6619399786 -0.847217023373 3.79597997665 0.0242008995265 0.381931990385 -0.923874020576 148 97 95 0.0136757949367
1.47799003124 -0.552794992924 3.77063989639 -0.20368899405 -0.308205008507 -0.92925798893 108 75 82 0.0136775150895
1.47196996212 -0.564234018326 3.77511000633 -0.203603997827 -0.308405011892 -0.929210007191 119 77 80 0.0136775150895
0.563652992249 -0.656699001789 3.87999010086 0.0807247012854 0.3812020123 -0.920961022377 157 105 103 0.0136782992631
1.60865998268 -0.138183996081 3.8770198822 -0.18791000545 0.206729993224 -0.960183978081 42 28 23 0.0136786997318
1.62215995789 -0.13779899478 3.87918996811 -0.185121998191 0.212779998779 -0.95940297842 42 28 23 0.0136786997318
0.721740007401 -0.737465023994 3.84742999077 -0.307727009058 0.330927014351 -0.892071008682 173 118 113 0.0136791355908
0.844937980175 -0.595295011997 3.85773992538 -0.344494998455 0.300933986902 -0.889248013496 133 91 91 0.0136791355908
0.839718997478 -0.583895027637 3.85226988792 -0.344251990318 0.3009159863 -0.889347970486 129 93 98 0.0136791355908
0.513568997383 -0.0912176966667 4.11189985275 -0.430476009846 0.0307484008372 -0.902077972889 54 48 65 0.0136792827398
1.73442995548 -0.723784029484 3.79551005363 -0.0438128001988 0.246723994613 -0.968095004559 127 77 76 0.0136795742437
1.72104001045 -0.723770022392 3.79831004143 -0.0398387983441 0.24774299562 -0.968006014824 127 75 73 0.0136795742437
0.619442999363 -0.678609013557 3.87121009827 0.0831585973501 0.383691996336 -0.919709026814 163 110 103 0.0136821297929
1.46417999268 -0.648500025272 3.82384991646 0.00768371019512 -0.250777989626 -0.968014001846 142 89 86 0.0136823644862
1.52560997009 -0.539668023586 3.76951003075 0.112680003047 -0.251590996981 -0.961251974106 88 67 79 0.0136826774105
0.912708997726 -0.0837372019887 4.06504011154 0.396546989679 0.116726003587 -0.910562992096 50 45 50 0.0136839142069
0.919018983841 -0.0847463011742 4.05293989182 0.321096986532 -0.279875993729 -0.904745995998 51 49 55 0.0136839142069
1.24346005917 -1.06774997711 3.80984997749 0.132038995624 -0.0301332008094 -0.990786015987 180 126 122 0.0136842485517
1.72881996632 -0.667136013508 3.81734991074 -0.0391946993768 0.248135000467 -0.967931985855 132 83 81 0.013684858568
1.38821995258 -0.901814997196 3.80928993225 -0.0327540002763 0.12165299803 -0.992031991482 160 106 104 0.013685207814
1.28604996204 -0.716659009457 3.77919006348 -0.237758994102 -0.0419690981507 -0.970417022705 164 113 110 0.0136861382052
1.28123998642 -0.727061986923 3.77170991898 -0.267533004284 -0.0572453998029 -0.961847007275 159 108 104 0.0136861382052
1.61335003376 -0.332185000181 3.41135001183 0.0263176001608 0.542711019516 -0.839506983757 25 16 20 0.0136877521873
1.61345994473 -0.344267994165 3.40492010117 0.0258368998766 0.542743980885 -0.839501023293 39 34 45 0.0136877521873
1.27284002304 -0.635227024555 3.8150498867 0.0269399993122 -0.250831007957 -0.96765601635 154 105 102 0.0136886918917
0.560391008854 -0.163004994392 4.10540008545 -0.19328199327 0.220725998282 -0.955992996693 81 84 86 0.0136887067929
0.548300981522 -0.166583001614 4.1107301712 0.715731024742 0.222937002778 -0.661836981773 73 72 73 0.0136887067929
1.30046999454 -0.82247698307 3.80549001694 -0.0334373004735 0.128813996911 -0.991105020046 165 111 107 0.0136893084273
0.714964985847 -0.620305001736 3.87092995644 -0.0633046999574 -0.0255469996482 -0.997667014599 162 114 108 0.0136898998171
1.49415004253 -0.977123022079 3.77817988396 -0.0347060002387 -0.318322986364 -0.94734698534 159 108 104 0.0136901522055
1.4872200489 -0.965416014194 3.7797100544 -0.0337622985244 -0.31839299202 -0.94735699892 144 93 89 0.0136901522055
1.51065003872 -0.541408002377 3.75943994522 -0.203126996756 -0.308643013239 -0.929235994816 91 69 81 0.0136903021485
1.24509000778 -0.635249972343 3.81293988228 0.02666329965 -0.250802993774 -0.967670977116 149 99 97 0.0136938197538
1.25223004818 -0.623633027077 3.81168007851 0.0269818995148 -0.250829994678 -0.967655003071 154 105 102 0.0136938197538
1.51655995846 -0.530130028725 3.75440001488 -0.203126996756 -0.308643013239 -0.929235994816 77 64 81 0.0136938206851
0.720035970211 -0.679108023643 3.86291003227 -0.307969003916 0.331396996975 -0.891812980175 156 104 101 0.0136954030022
0.799618005753 -0.702345013618 3.8349199295 -0.310620009899 0.331050008535 -0.891022980213 160 109 104 0.0136965187266
0.794449985027 -0.689921975136 3.83748006821 -0.310894995928 0.331766992807 -0.890659987926 168 116 111 0.0136965187266
0.859309971333 -0.37237200141 3.99527001381 0.0478055998683 0.46034398675 -0.886452019215 66 70 78 0.0136967115104
0.866056025028 -0.361066997051 3.99904990196 0.0468557998538 0.45917698741 -0.887108027935 67 68 78 0.0136967115104
1.19445002079 -0.97946202755 3.7900800705 -0.0328170992434 0.117273002863 -0.992556989193 167 114 111 0.0136972460896
0.818781971931 -0.435649991035 3.4310400486 -0.231282994151 0.449247002602 -0.862951993942 81 91 121 0.0136990249157
0.832013010979 -0.435649991035 3.42748999596 -0.23128400743 0.449247002602 -0.862950980663 81 90 121 0.0136990249157
1.54000997543 -0.731058001518 3.78707003593 -0.20759999752 0.254049003124 -0.944648981094 151 100 97 0.013699377887
0.504858970642 -0.280467003584 4.06779003143 0.298869997263 0.0937279984355 -0.949679970741 48 45 56 0.0136994095519
0.511096000671 -0.268279999495 4.06728982925 0.29821100831 0.0882600024343 -0.950411021709 42 37 46 0.0136994095519
0.544992983341 -0.304042011499 4.06238985062 0.298242986202 0.0881567969918 -0.95041000843 48 44 44 0.0137011222541
0.558297991753 -0.303981989622 4.06565999985 0.298242002726 0.0881512016058 -0.950411021709 63 62 59 0.0137011222541
1.81131994724 -0.327677994967 3.47880005836 0.0384837016463 0.381684988737 -0.923491001129 61 63 82 0.0137017220259
2.05946993828 -0.980090975761 3.2802400589 0.135247007012 0.073292799294 -0.988097012043 181 128 118 0.0137022007257
1.5749900341 -1.01321995258 3.79488992691 0.103229001164 -0.379877001047 -0.919259011745 166 115 111 0.0137028601021
1.06632995605 -0.483101010323 3.45745992661 0.743750989437 -0.278337985277 -0.607752025127 140 144 172 0.0137040354311
1.05290997028 -0.484766989946 3.45968008041 0.592624008656 -0.526233017445 -0.609816014767 136 139 168 0.0137040354311
0.795657992363 -0.473948001862 3.35665988922 -0.258937001228 0.458326995373 -0.850228011608 146 152 182 0.0137051865458
0.790687024593 -0.463398993015 3.36385989189 -0.258937001228 0.458326995373 -0.850228011608 134 139 167 0.0137051865458
0.80379897356 -0.463398993015 3.35986995697 -0.258937001228 0.458326995373 -0.850228011608 128 132 161 0.0137055749074
1.89520001411 -0.651929020882 3.26627993584 -0.600256025791 -0.242721006274 -0.762089014053 187 128 116 0.013705692254
0.572695970535 -0.713181972504 3.8654499054 0.0814630016685 0.382079005241 -0.920531988144 157 104 96 0.0137059725821
1.49725997448 -0.541408002377 3.76237010956 -0.203126996756 -0.308643013239 -0.929235994816 93 71 82 0.0137069215998
0.651014983654 -0.91643601656 3.84248995781 0.0312303993851 -0.397024989128 -0.917276024818 169 114 108 0.0137074133381
0.756326019764 -0.725012004375 3.83288002014 -0.302226006985 0.319539994001 -0.898083984852 169 114 107 0.0137077011168
1.85530996323 -1.13969004154 3.03091001511 0.082728497684 -0.230096995831 -0.969645023346 161 107 97 0.0137084070593
0.70767802 -0.565346002579 3.85416007042 0.195676997304 0.264995008707 -0.944186985493 101 92 111 0.0137085812166
0.900780022144 -0.443798989058 3.41282010078 -0.285342991352 -0.344790995121 -0.894258975983 113 117 145 0.0137093691155
1.40789997578 -0.82872402668 3.77891993523 -0.30679500103 0.196167007089 -0.931340992451 159 106 103 0.0137108117342
1.83204996586 -0.338643014431 3.47511005402 0.0384826995432 0.38168400526 -0.923491001129 135 142 168 0.0137114506215
0.845256984234 -0.435649991035 3.42393994331 -0.23128400743 0.449247002602 -0.862950980663 86 92 118 0.0137115176767
0.840016007423 -0.425040990114 3.43087005615 -0.23128400743 0.449247002602 -0.862950980663 111 118 147 0.0137121723965
0.975197970867 -0.455065011978 3.40578007698 -0.285443007946 -0.344006001949 -0.894528985023 135 140 169 0.0137127004564
0.930015981197 -0.80888402462 3.80907011032 -0.392785996199 -0.193231001496 -0.899100005627 165 113 108 0.0137166976929
1.74942994118 -0.963903009892 3.78707003593 0.0030045399908 -0.216012999415 -0.976386010647 142 92 91 0.013716828078
1.74246001244 -0.975634992123 3.78846001625 0.00415920000523 -0.214274004102 -0.976764976978 154 104 102 0.013716828078
1.20290005207 -1.06778001785 3.80449008942 0.131821006536 -0.0298833996058 -0.990822970867 180 127 124 0.0137179121375
0.476680994034 -0.0484698005021 4.14699983597 -0.172738999128 0.472615987062 -0.86417299509 117 131 152 0.0137183014303
0.470064997673 -0.0364523008466 4.14700984955 -0.172866001725 0.472674012184 -0.86411601305 111 122 143 0.0137183014303
0.466533005238 -0.612587988377 3.85644006729 0.132322996855 0.385544985533 -0.913151025772 151 153 175 0.013719654642
0.48012599349 -0.612568974495 3.85829997063 0.151019006968 0.398716002703 -0.904554009438 152 150 169 0.013719654642
1.40197002888 -1.08278000355 3.80251002312 -0.0489335991442 -0.268326997757 -0.962083995342 164 111 106 0.013720205985
0.754932999611 -0.86728900671 3.82630991936 -0.290365993977 -0.252231001854 -0.923075020313 174 122 118 0.0137207377702
0.762188017368 -0.878934025764 3.82617998123 0.380437999964 -0.206661000848 -0.901419997215 183 131 126 0.0137207377702
1.83230996132 -0.316909998655 3.48622989655 0.00508111016825 0.307258993387 -0.951611995697 127 137 162 0.0137208169326
0.849842011929 -0.914614021778 3.80821990967 -0.0628349035978 -0.0217220000923 -0.997788012028 173 120 110 0.0137208681554
0.434064000845 0.0296538993716 4.15663003922 -0.0957027971745 0.327526003122 -0.939983010292 111 125 148 0.0137217184529
0.440982013941 0.0178477000445 4.1576499939 -0.0963435024023 0.327565014362 -0.939903974533 111 122 146 0.0137217184529
0.739853024483 -0.890636980534 3.82856011391 -0.260953009129 -0.129446998239 -0.956632971764 173 118 109 0.0137217817828
0.747089982033 -0.902284026146 3.82907009125 0.0394518002868 -0.399807006121 -0.915750026703 184 129 121 0.0137217817828
1.03119003773 -1.02321004868 3.80423998833 0.0779658034444 0.12882900238 -0.988596975803 177 126 122 0.0137222465128
1.51997005939 -0.575358986855 3.76980996132 -0.203078001738 -0.308070003986 -0.929436981678 136 90 91 0.0137229207903
0.854498028755 -0.425933986902 3.4418399334 -0.232320994139 0.449416011572 -0.862585008144 106 113 143 0.0137253440917
1.52590000629 -0.564049005508 3.76477003098 -0.203078001738 -0.308070003986 -0.929436981678 120 77 81 0.0137263182551
1.21241998672 -0.235451996326 3.94802999496 0.312061995268 -0.159387007356 -0.936596989632 43 36 45 0.0137283699587
1.44705998898 -0.788254976273 3.78253006935 -0.0408344008029 0.248126998544 -0.967867016792 154 102 101 0.0137290544808
1.27219998837 -1.01644003391 3.79970002174 0.28928399086 -0.261267989874 -0.920898020267 176 122 119 0.0137293050066
1.50211000443 -0.90204000473 3.78134989738 -0.312007009983 0.193243995309 -0.930218994617 157 106 103 0.0137297865003
0.732611000538 -0.878991007805 3.82923007011 0.0359839014709 -0.399399995804 -0.916069984436 181 129 123 0.0137304197997
1.61405003071 -0.999559998512 3.78484010696 0.0985995978117 -0.382247000933 -0.918784976006 157 106 104 0.0137348501012
1.48383998871 -0.541408002377 3.76530003548 -0.203127995133 -0.308643013239 -0.929235994816 92 69 81 0.0137361017987
0.872101008892 -0.714752018452 3.82291007042 -0.466746002436 0.322746008635 -0.823396980762 169 117 111 0.0137363811955
0.858865976334 -0.714395999908 3.82657003403 -0.466459989548 0.32239601016 -0.82369697094 170 118 112 0.0137363811955
0.764388024807 -0.283569008112 4.0923500061 -0.184039995074 0.540130972862 -0.821210980415 75 79 85 0.0137370787561
0.764550983906 -0.29726099968 4.09345006943 -0.207975000143 0.576902985573 -0.789892017841 74 79 85 0.0137370787561
0.85950499773 -0.751277029514 3.81573009491 -0.466744989157 0.322746008635 -0.823397994041 161 108 103 0.0137372855097
0.777882993221 -0.463726997375 3.37252998352 -0.260421007872 0.459313005209 -0.84924197197 125 131 159 0.013737318106
0.764747023582 -0.463726997375 3.37654995918 -0.260421007872 0.459313005209 -0.84924197197 120 126 155 0.013737318106
0.993651986122 -0.443966001272 3.39211988449 -0.285331010818 -0.344480991364 -0.894381999969 114 118 146 0.0137400729582
0.786062002182 -0.453148007393 3.37575006485 -0.260421007872 0.459313005209 -0.84924197197 95 101 128 0.0137402517721
1.690969944 -0.333936989307 3.38801002502 -0.344635009766 0.406722009182 -0.846051990986 26 17 26 0.0137411728501
1.30114996433 -1.06801998615 3.7863099575 0.190521001816 0.167484998703 -0.967289984226 177 124 119 0.0137418992817
1.4842799902 -0.808672010899 3.77622008324 -0.300808995962 0.176685005426 -0.937174975872 153 101 99 0.0137420017272
1.88310003281 -1.07193005085 3.26033997536 -0.0337392985821 0.167435005307 -0.985306024551 173 119 112 0.0137420669198
1.47040998936 -0.541408002377 3.76823997498 -0.203127995133 -0.308643013239 -0.929235994816 91 68 81 0.0137480227277
0.933070003986 -0.896315991879 3.80223989487 -0.263359993696 -0.158258005977 -0.951628029346 182 130 127 0.0137483542785
1.5059800148 -0.692723989487 3.81018996239 0.342180013657 -0.283084988594 -0.895977020264 153 99 97 0.0137485088781
1.51198005676 -0.682013988495 3.81638002396 0.0077422298491 -0.251718997955 -0.967769980431 154 100 98 0.0137485088781
1.47634005547 -0.530081987381 3.76318001747 -0.203127995133 -0.308643013239 -0.929235994816 79 64 82 0.0137485302985
1.75657999516 -0.975589990616 3.78821992874 0.00313437008299 -0.21584199369 -0.976423025131 147 98 95 0.0137488562614
0.8053830266 -0.435057997704 3.44807004929 -0.232032999396 0.449155986309 -0.86279797554 86 94 122 0.0137502225116
1.36263000965 -0.623694002628 3.80798006058 0.0284937992692 -0.250642985106 -0.967660009861 142 91 88 0.0137534616515
0.527297019958 -0.581086993217 3.91338992119 0.142520993948 0.397480010986 -0.906475007534 143 135 160 0.0137543249875
0.533520996571 -0.569615006447 3.917730093 0.144099995494 0.398690998554 -0.905692994595 144 142 166 0.0137543249875
1.84835994244 -0.724144995213 3.30620002747 -0.611257970333 -0.251996010542 -0.750241994858 171 115 108 0.0137553922832
1.83527004719 -0.719923973083 3.30597996712 -0.625671029091 -0.269237011671 -0.732152998447 168 112 108 0.0137553922832
1.42210996151 -0.671902000904 3.8289399147 0.0076373401098 -0.250097006559 -0.968191027641 157 106 100 0.0137556120753
1.41448998451 -0.683333992958 3.82825994492 0.00726551981643 -0.250223010778 -0.9681609869 150 98 93 0.0137556120753
1.35613000393 -0.635188996792 3.81931996346 0.0265170000494 -0.25022700429 -0.967823982239 162 110 107 0.0137558383867
0.890092015266 -0.66680598259 3.83102989197 -0.334919005632 0.12885299325 -0.933395028114 167 115 110 0.0137560879812
1.53691005707 -0.38847899437 3.40415000916 0.0823047980666 -0.0828209966421 -0.993160009384 101 105 132 0.0137578239664
1.23189997673 0.0545509010553 4.30360984802 -0.162744998932 -0.0789811015129 -0.983501970768 71 72 90 0.0137585811317
1.245470047 0.0545506998897 4.30134010315 -0.162744000554 -0.0789811983705 -0.983501970768 69 69 86 0.0137585811317
0.563992023468 -0.391938000917 3.42988991737 -0.153064996004 -0.404817998409 -0.901494979858 79 80 93 0.0137587329373
1.70588004589 -0.915141999722 3.79198002815 -0.128180995584 0.0892653018236 -0.987725019455 132 80 77 0.0137588949874
1.8082100153 -0.889993011951 3.3972299099 -0.220167994499 0.134786993265 -0.966104984283 142 105 104 0.0137592637911
1.2519299984 -0.64685600996 3.81612992287 0.0267040003091 -0.250800997019 -0.967670023441 161 110 108 0.0137594062835
1.25845003128 -0.658563971519 3.81300997734 0.0226809997112 -0.247237995267 -0.968689024448 152 101 98 0.0137594062835
0.814804017544 -0.139182001352 4.05916976929 -0.196554005146 0.295197993517 -0.935000002384 43 34 40 0.0137599734589
0.821111023426 -0.150979995728 4.05595016479 -0.0476851016283 0.242745995522 -0.968917012215 43 34 41 0.0137599734589
1.68347001076 -0.3571369946 3.41141009331 -0.381608009338 0.109573997557 -0.917806982994 84 84 106 0.0137600395828
1.46607005596 -0.575538992882 3.78073000908 -0.203126996756 -0.308643013239 -0.929235994816 134 88 88 0.0137636968866
1.46008002758 -0.586955010891 3.78555011749 -0.203124001622 -0.308643996716 -0.929235994816 141 93 90 0.0137636968866
1.48426997662 -0.258877009153 3.89721989632 -0.478789001703 -0.293954014778 -0.827256023884 39 29 27 0.0137641169131
0.891170024872 -0.728792011738 3.82751011848 -0.450347006321 0.310674011707 -0.83705997467 168 116 112 0.0137660624459
1.22028005123 -0.0788725018501 4.01012992859 0.117619998753 0.159834995866 -0.980111002922 42 32 39 0.0137692885473
1.20660996437 -0.0788725018501 4.00848007202 -0.495741993189 -0.0946059972048 -0.863300979137 44 43 52 0.0137692885473
1.97732996941 -0.731459975243 3.2970700264 -0.411664009094 0.509516000748 -0.755595982075 190 133 123 0.0137706939131
1.21367001534 -0.0906473994255 4.00741004944 -0.598568975925 -0.0577345006168 -0.798987984657 42 36 44 0.0137708922848
1.21322000027 -0.0670975968242 4.01119995117 -0.579201996326 0.275817990303 -0.76710498333 45 37 43 0.0137708988041
1.00518000126 -0.422033011913 3.3880200386 -0.282965987921 -0.341982990503 -0.896090984344 90 94 119 0.013772027567
1.72537004948 -0.968680977821 3.35662007332 0.0782556980848 -0.0748393014073 -0.994120001793 129 82 91 0.0137731609866
1.34749996662 -1.09742999077 3.80504989624 0.263626009226 -0.141427993774 -0.954200983047 183 131 124 0.0137739693746
1.34025001526 -1.08580005169 3.80643010139 0.263747006655 -0.144602000713 -0.953692018986 171 119 112 0.0137739693746
1.24618005753 -0.611575007439 3.80329990387 0.0268910992891 -0.25083899498 -0.967655003071 154 105 103 0.0137751121074
1.23240995407 -0.611575007439 3.80292010307 0.0268948990852 -0.25083899498 -0.967655003071 154 106 105 0.0137753402814
1.81122994423 -0.0543034002185 3.5768198967 -0.538024008274 0.0429206006229 -0.841835975647 110 115 134 0.0137755777687
1.80176997185 -0.046635299921 3.58326005936 -0.538024008274 0.0429208017886 -0.841835975647 79 79 93 0.0137755777687
1.22734999657 -0.0906473994255 4.00904989243 -0.690216004848 -0.0799364000559 -0.719174981117 41 27 32 0.0137767493725
1.46447002888 -0.552757978439 3.77330994606 -0.203127995133 -0.308643013239 -0.929235994816 109 76 84 0.0137771433219
0.915555000305 -0.0446800999343 4.04711008072 0.395622998476 0.116654001176 -0.910974025726 60 48 50 0.0137771647424
0.902046978474 -0.0446957014501 4.04440021515 0.393424987793 0.1145690009 -0.912190020084 59 47 50 0.0137771647424
1.45694994926 -0.541408002377 3.77117991447 -0.203127995133 -0.308643013239 -0.929235994816 90 67 81 0.0137773696333
1.80067002773 -0.0603734999895 3.58326005936 -0.538024008274 0.0429205000401 -0.841835975647 69 67 80 0.0137780122459
1.48701000214 -0.586929023266 3.77935004234 -0.203602999449 -0.308405011892 -0.92921102047 139 90 88 0.0137788131833
0.929238021374 -1.15161001682 3.7891600132 0.0211276002228 -0.197282999754 -0.980118989944 189 134 131 0.0137790702283
1.19286000729 -0.247476994991 3.94815993309 0.189327999949 0.04722269997 -0.980777978897 50 55 71 0.0137794511393
0.439711004496 -0.613906025887 3.86831998825 0.145511999726 0.397159010172 -0.906140983105 148 153 175 0.0137794585899
0.432155013084 -0.602949976921 3.87189006805 0.145511999726 0.397157996893 -0.906140983105 156 161 186 0.0137794585899
1.50047004223 -0.586929023266 3.77640008926 -0.203602999449 -0.308405011892 -0.92921102047 136 88 87 0.0137795098126
0.931361019611 -0.34889999032 3.98511004448 -0.301454991102 0.410760998726 -0.860464990139 60 67 76 0.0137796299532
0.925803005695 -0.336989998817 3.98924994469 -0.301454007626 0.410760998726 -0.860466003418 60 65 73 0.0137796299532
1.02611005306 -0.433245003223 3.38567996025 -0.282965987921 -0.341982990503 -0.896090984344 95 98 128 0.0137798953801
0.902714014053 -1.04858005047 3.78892993927 -0.0961117967963 0.072366297245 -0.992735981941 179 125 122 0.0137809151784
1.79957997799 -0.0741114020348 3.58326005936 -0.538024008274 0.0429203994572 -0.841835975647 62 59 71 0.0137810800225
1.884739995 -0.404632002115 3.45723009109 -0.0838626027107 0.281816005707 -0.955796003342 103 102 98 0.0137816751376
0.445764005184 -0.6029509902 3.87408995628 0.145511999726 0.397159010172 -0.906140983105 154 158 183 0.0137820225209
1.66962003708 -0.811824023724 3.79539990425 0.0262151006609 0.379981011152 -0.924623012543 140 88 84 0.0137838814408
1.68201994896 -0.812424004078 3.78941011429 0.0276417993009 0.378762990236 -0.925081014633 144 93 90 0.0137838814408
1.86146998405 -0.728398025036 3.30641007423 -0.610257029533 -0.249819993973 -0.751782000065 177 120 111 0.0137842511758
1.26692998409 -0.600023984909 3.80084991455 0.0268911998719 -0.25083899498 -0.967655003071 148 98 96 0.0137844420969
0.960198998451 -0.714945971966 3.8111000061 -0.0748410001397 0.175974994898 -0.981545984745 158 103 97 0.0137844458222
1.35717999935 -1.01691997051 3.81536006927 0.0308582000434 -0.249867007136 -0.967787981033 166 113 110 0.0137855587527
1.34947001934 -1.02832996845 3.81471991539 0.0314658991992 -0.249871999025 -0.967767000198 157 105 101 0.0137855587527
1.19351005554 0.0547109991312 4.33064985275 -0.168127000332 0.0868590027094 -0.981930971146 81 83 102 0.0137879448012
1.18664002419 0.0666071027517 4.33183002472 -0.163741007447 -0.080407500267 -0.983220994473 107 119 141 0.0137879448012
0.453325986862 -0.613914012909 3.87050008774 0.145511999726 0.397159010172 -0.906140983105 145 149 171 0.013788423501
1.45098996162 -0.552757978439 3.77625989914 -0.203127995133 -0.308643013239 -0.929235994816 108 76 83 0.0137894758955
1.34528005123 -0.590560972691 3.7891600132 -0.298312008381 -0.42322999239 -0.855503976345 147 100 97 0.0137897068635
1.35606002808 -0.586248993874 3.79660010338 -0.151232004166 -0.342142999172 -0.92739802599 149 101 99 0.0137897068635
1.65749001503 -0.623465001583 3.82629990578 0.0149183999747 -0.24964299798 -0.968222975731 138 91 84 0.0137904025614
1.26602005959 -0.623637020588 3.81186008453 0.0269773006439 -0.250829994678 -0.967655003071 154 105 102 0.013791186735
1.2203400135 0.0546594001353 4.32289981842 -0.163741007447 -0.0804077014327 -0.983220994473 72 73 92 0.0137924849987
1.22718000412 0.0427542999387 4.32158994675 -0.16373899579 -0.0804058015347 -0.983222007751 54 48 60 0.0137924849987
0.459383994341 -0.6029509902 3.87628006935 0.145512998104 0.397159010172 -0.90614002943 159 163 188 0.0137933781371
0.901705980301 -0.225774005055 4.02991008759 0.438024997711 0.457868993282 -0.773621022701 43 35 44 0.0137944482267
0.887916982174 -0.225993007421 4.03023004532 0.408158004284 0.31739500165 -0.855960011482 40 35 45 0.0137944482267
0.444252997637 -0.581013977528 3.88341999054 0.145511999726 0.397159010172 -0.906140983105 189 190 214 0.0137957464904
1.9778200388 -0.799569010735 3.27803993225 -0.12052500248 0.555296003819 -0.82287299633 173 112 102 0.0137963313609
1.24080002308 0.0427546985447 4.3193898201 -0.16373899579 -0.0804056972265 -0.983222007751 54 47 58 0.0137965753675
1.19975996017 0.0665706992149 4.32534980774 -0.163741007447 -0.0804077014327 -0.983220994473 106 117 139 0.0137967998162
1.20641005039 0.0784804970026 4.32327985764 -0.163741007447 -0.0804077014327 -0.983220994473 113 130 152 0.0137967998162
1.20671999454 0.0546592995524 4.32516002655 -0.163741007447 -0.0804077014327 -0.983220994473 75 77 96 0.0137970838696
1.43612003326 -0.671832978725 3.82901000977 0.00763696990907 -0.250097990036 -0.968190014362 153 101 96 0.0137975746766
0.599470019341 -0.690632998943 3.87432003021 0.0815671011806 0.381628990173 -0.920710027218 157 104 96 0.0137988049537
1.42891001701 -0.989075005054 3.78462004662 0.0242558997124 -0.2613709867 -0.964933991432 156 104 101 0.0137990154326
0.881944000721 -0.740097999573 3.81896996498 -0.463658004999 0.319177985191 -0.826526999474 177 125 119 0.0138001479208
0.886990010738 -0.752934992313 3.8185300827 -0.466762006283 0.332991987467 -0.819298028946 164 112 106 0.0138001479208
0.55408000946 -0.0913000032306 4.0882101059 -0.290556013584 -0.459594011307 -0.839255988598 52 42 46 0.0138016566634
0.549592018127 -0.0782568976283 4.08773994446 -0.456007987261 0.351972997189 -0.81741797924 59 49 52 0.0138016566634
1.35039997101 -0.255616009235 3.90488004684 0.518743991852 -0.510380029678 -0.6858689785 50 40 36 0.0138020468876
1.35754001141 -0.256720006466 3.91664004326 -0.161765992641 -0.425752013922 -0.890262007713 50 39 35 0.0138020468876
1.21390998363 0.0427703000605 4.32672977448 -0.163741007447 -0.080408602953 -0.983220994473 55 50 62 0.0138032967225
1.20030999184 0.0427707992494 4.32909011841 -0.163741007447 -0.0804091021419 -0.983220994473 56 49 62 0.0138032967225
0.562332987785 -0.590779006481 3.8828599453 0.136585995555 0.391290992498 -0.910075008869 129 109 126 0.0138033498079
1.7230900526 -0.947937011719 3.76321005821 -0.200196996331 0.222641006112 -0.954123973846 148 98 94 0.0138038089499
0.473013013601 -0.6029509902 3.878469944 0.145512998104 0.397159010172 -0.90614002943 157 161 185 0.013803829439
1.15126001835 -0.902855992317 3.80177998543 0.226398006082 0.223325997591 -0.948086977005 164 111 105 0.0138048641384
1.00147998333 -0.455193012953 3.39393997192 -0.285331010818 -0.344480991364 -0.894381999969 138 143 173 0.0138048939407
0.801438987255 -0.425516009331 3.47283005714 -0.231125995517 0.449200987816 -0.86301702261 122 129 154 0.013805532828
0.788102984428 -0.425516009331 3.47639989853 -0.231125995517 0.449200987816 -0.863017976284 108 114 141 0.013805532828
1.25919997692 -0.612065017223 3.80866003036 0.0270131994039 -0.250827997923 -0.967655003071 156 106 104 0.013808154501
1.73494005203 -0.768369019032 3.78501009941 -0.0397007018328 0.245438992977 -0.968599021435 131 80 78 0.0138090513647
1.70764994621 -0.633334994316 3.81257009506 -0.0389140993357 0.245510995388 -0.968612015247 139 88 83 0.0138093316928
1.36307001114 -0.646808981895 3.82206988335 0.0265218000859 -0.250239998102 -0.967821002007 159 107 104 0.0138112204149
0.508189976215 -0.795530021191 3.96993994713 -0.117000997066 -0.0217276997864 -0.992893993855 156 111 106 0.0138135869056
0.7747579813 -0.425516009331 3.47996997833 -0.231125995517 0.449200987816 -0.863017976284 108 116 143 0.0138142891228
0.45111399889 -0.570069015026 3.88831996918 0.240773007274 0.463640004396 -0.852681994438 188 194 224 0.0138157643378
1.22414004803 -0.623869001865 3.81135010719 0.0266277007759 -0.250793009996 -0.967674970627 156 107 106 0.0138157680631
1.25041997433 -1.07976996899 3.81263995171 0.131942003965 -0.0299460999668 -0.990804970264 169 116 112 0.0138165513054
1.39427995682 -1.07174003124 3.80566000938 -0.131911993027 -0.263188004494 -0.955684006214 174 120 116 0.0138181261718
1.43551003933 -0.419039011002 3.44341993332 0.00716075021774 0.110674999654 -0.99383097887 107 113 143 0.0138185257092
1.70181000233 -0.259454995394 3.85645008087 -0.237667992711 0.558975994587 -0.794393002987 31 23 22 0.0138188255951
0.575258016586 -0.589335978031 3.8665099144 0.141711995006 0.396809011698 -0.90689599514 129 107 123 0.0138190509751
0.567696988583 -0.578350007534 3.8701300621 0.141711995006 0.396809011698 -0.90689599514 140 128 150 0.0138190509751
0.784667015076 -0.840188980103 3.80947995186 -0.114817999303 -0.263927012682 -0.957683980465 171 119 113 0.0138193657622
0.791903972626 -0.851733028889 3.81178998947 -0.114818997681 -0.263927012682 -0.957683980465 174 121 115 0.0138193657622
1.29361999035 -0.646808981895 3.82014989853 0.0267204008996 -0.250230014324 -0.967818021774 163 112 108 0.0138193676248
1.27982997894 -0.64678800106 3.82104992867 0.0267938002944 -0.250243991613 -0.967812001705 162 110 106 0.0138193676248
0.815900981426 -0.349447995424 4.00191020966 0.0248709004372 0.371843010187 -0.927963018417 33 27 34 0.0138218868524
0.822767972946 -0.361238002777 3.99970006943 0.0478044003248 0.46034398675 -0.886452019215 32 25 33 0.0138218868524
1.85470998287 -0.713163971901 3.29733991623 -0.611257016659 -0.251996010542 -0.750241994858 184 127 120 0.0138237671927
1.77920997143 -0.425083011389 3.43214988708 0.124420002103 0.375050008297 -0.918617010117 117 124 151 0.0138243697584
1.66899001598 -0.858259022236 3.79135990143 0.0241969991475 0.381931006908 -0.923874020576 139 87 86 0.0138247404248
0.894846975803 -0.740097999573 3.81172990799 -0.463658004999 0.319177985191 -0.826526999474 175 122 116 0.0138258337975
1.39805996418 -1.03925001621 3.81222009659 0.0197726003826 -0.252790987492 -0.967319011688 182 130 126 0.0138261308894
0.715867996216 -0.725157022476 3.8451499939 -0.306861996651 0.331064999104 -0.89231801033 173 118 112 0.0138262724504
0.415645003319 -0.558992028236 3.89151000977 0.145123004913 0.396876007318 -0.906327009201 152 157 188 0.0138265034184
0.4217210114 -0.547999024391 3.89728999138 0.145123004913 0.396876007318 -0.906327009201 119 126 156 0.0138265034184
1.3693100214 -1.03893005848 3.80935001373 0.0274320002645 -0.249345004559 -0.96802598238 182 130 126 0.0138266533613
0.885810017586 -0.715619027615 3.82449007034 -0.463988989592 0.319283008575 -0.826300978661 167 116 111 0.013826967217
1.24492001534 -0.658461987972 3.81894993782 0.0266632009298 -0.250802993774 -0.967670977116 151 99 97 0.0138286026195
1.2096799612 -0.670337975025 3.81050992012 0.0384473018348 -0.249400004745 -0.967637002468 159 109 105 0.013829077594
1.20289003849 -0.658739984035 3.80725002289 0.038454901427 -0.249400004745 -0.967637002468 146 96 94 0.013829077594
0.60543102026 -0.391938000917 3.42284989357 -0.15306699276 -0.404817998409 -0.901494979858 86 90 107 0.0138291092589
0.626810014248 -0.689810991287 3.86683011055 0.0831604972482 0.383671998978 -0.919717013836 161 107 101 0.0138292536139
0.401989012957 -0.558992028236 3.8893198967 0.145123004913 0.396876007318 -0.906327009201 152 157 188 0.0138304969296
1.86184000969 -0.339812994003 3.50009989738 0.0129369003698 0.355120003223 -0.934731006622 143 146 159 0.0138305602595
1.87566995621 -0.339816004038 3.50023007393 0.0129378996789 0.355120003223 -0.934731006622 137 141 143 0.0138305602595
1.75512003899 -0.902050018311 3.03545999527 -0.538164973259 0.134810000658 -0.831988990307 160 110 99 0.0138306180015
0.58136099577 -0.57833302021 3.87227988243 0.141711995006 0.396809011698 -0.90689599514 124 113 133 0.0138321043923
0.676711976528 -0.789928019047 3.84672999382 0.077630199492 0.151298999786 -0.985435009003 171 117 109 0.0138328978792
1.23108994961 -0.658452987671 3.81861996651 0.0265570990741 -0.250791996717 -0.967676997185 148 96 93 0.0138340052217
0.536186993122 -0.679332017899 3.87391996384 -0.0635616034269 0.379902005196 -0.922839999199 175 121 114 0.0138348527253
1.21671998501 -0.658739984035 3.80780005455 0.0384637005627 -0.249399006367 -0.967637002468 147 96 93 0.0138354143128
1.6655600071 -0.959879994392 3.78648996353 0.429643005133 -0.167796999216 -0.887272000313 137 86 84 0.013835481368
0.556185007095 -0.601679980755 3.87563991547 0.14171500504 0.397177010775 -0.906733989716 143 104 108 0.0138364667073
1.68351995945 -0.857209980488 3.78392004967 0.0263337008655 0.378964006901 -0.925037026405 136 86 84 0.0138373756781
1.55985999107 -1.0133099556 3.79376006126 0.103171996772 -0.379887014627 -0.919260978699 170 118 114 0.0138389552012
0.456721007824 -0.538775980473 3.93447995186 0.0117100998759 0.33533000946 -0.94202798605 126 135 163 0.0138391936198
0.44867798686 -0.550001978874 3.93357992172 0.227800995111 0.454001009464 -0.861388027668 140 147 174 0.0138391936198
0.677667021751 -0.700774013996 3.85193991661 -0.300990998745 0.321909993887 -0.897651970387 163 112 107 0.0138397961855
0.588934004307 -0.58933699131 3.86865997314 0.141711995006 0.396809011698 -0.90689599514 121 99 114 0.0138398548588
0.551980018616 -0.316100001335 4.06346988678 0.298242002726 0.0881567969918 -0.95041000843 53 51 48 0.0138405058533
1.67647004128 -0.846113979816 3.78825998306 0.026330800727 0.378964990377 -0.925037026405 147 96 93 0.0138440458104
1.23793005943 -0.670059978962 3.82183003426 0.0264913998544 -0.250795006752 -0.967678010464 162 111 108 0.0138444155455
0.804372012615 -0.970661997795 3.80683994293 -0.420985996723 0.206917002797 -0.883150994778 181 129 126 0.01384517923
1.30709004402 -0.623731017113 3.80428004265 0.0267881006002 -0.251879990101 -0.967387974262 150 99 95 0.0138452956453
1.29324996471 -0.623731017113 3.80390000343 0.0267967004329 -0.251879990101 -0.967387020588 151 100 97 0.0138452956453
1.78545999527 -0.413964986801 3.4375500679 0.124421000481 0.375050008297 -0.918617010117 111 117 144 0.0138453273103
2.19445991516 -0.287295997143 3.53297996521 -0.224610000849 0.0212398003787 -0.974216997623 73 83 75 0.0138463666663
1.72569000721 -0.52450799942 3.74985003471 0.149112001061 -0.29137301445 -0.944917023182 70 59 74 0.0138491559774
0.674538016319 -0.617688000202 3.86525011063 -0.0631852000952 -0.0206821002066 -0.997788012028 159 112 108 0.0138502987102
1.18650996685 0.0427578017116 4.33079004288 -0.168126001954 0.0868590995669 -0.981930971146 57 49 61 0.0138527918607
1.41670000553 -0.937077999115 3.7897799015 -0.420942991972 0.200914993882 -0.884557008743 159 105 103 0.013852827251
0.414130985737 -0.536989986897 3.90090990067 0.145122006536 0.396876007318 -0.906327009201 119 123 154 0.01385319978
1.46273994446 -0.745796978474 3.8128900528 -0.037857901305 0.242973998189 -0.969294011593 165 112 112 0.0138553231955
1.61637997627 -0.947767019272 3.77605009079 -0.35769200325 -0.0914383009076 -0.929351985455 145 94 93 0.0138561846688
1.18347001076 -0.212068006396 3.98280000687 -0.218330994248 0.293348014355 -0.930741012096 46 52 71 0.0138592058793
1.79173004627 -0.402837008238 3.44293999672 0.124421000481 0.375050008297 -0.918617010117 103 109 136 0.0138598000631
1.31393003464 -0.635348975658 3.80749988556 0.0268229003996 -0.251879006624 -0.967387020588 160 110 107 0.0138610899448
0.651890993118 -0.665919005871 3.86123991013 0.0843200013041 0.384667992592 -0.919196009636 166 112 104 0.0138612249866
0.791296005249 -0.714470982552 3.8278799057 -0.31065300107 0.330967992544 -0.891040980816 175 124 118 0.0138617921621
0.783195972443 -0.725574970245 3.82967996597 -0.302013993263 0.319696009159 -0.898099005222 168 113 105 0.0138617921621
1.22456002235 -0.646745026112 3.82214999199 0.0277552995831 -0.249813005328 -0.96789598465 158 108 105 0.0138628063723
0.927676022053 -0.444130986929 3.40946006775 -0.285331994295 -0.344440996647 -0.89439702034 116 120 149 0.0138629097492
1.17340004444 0.0428230985999 4.33760976791 -0.168086007237 0.0867450013757 -0.981948018074 56 48 61 0.01386341732
1.1804100275 0.0547826997936 4.33746004105 -0.168084993958 0.0867452025414 -0.981948018074 82 84 103 0.01386341732
1.26486003399 -0.670397996902 3.80967998505 0.0266733001918 -0.248834997416 -0.968178987503 166 115 111 0.0138643840328
1.32095003128 -0.623731017113 3.80467009544 0.0267881006002 -0.251879990101 -0.967387974262 148 97 93 0.0138654746115
1.37927997112 -1.0029900074 3.79187011719 0.0305944997817 -0.249700993299 -0.967839002609 156 105 101 0.0138702876866
1.2728099823 -0.658415973186 3.82385993004 0.0267424993217 -0.250247001648 -0.967813014984 153 102 99 0.013870335184
1.46686005592 -0.755366027355 3.79116988182 -0.0376428999007 0.244925007224 -0.968810975552 151 97 97 0.0138717368245
0.863588988781 -0.726931989193 3.8229598999 -0.466744989157 0.322746008635 -0.823397994041 162 110 103 0.0138741107658
1.55773997307 -0.622341990471 3.82104992867 0.0214590001851 -0.24807600677 -0.968502998352 135 85 81 0.0138743789867
1.55044996738 -0.634141027927 3.8214199543 0.0216247998178 -0.244090005755 -0.969511985779 150 100 96 0.0138743789867
