ply
format ascii 1.0
element vertex 724
property float x
property float y
property float z
property float nx
property float ny
property float nz
property uchar diffuse_red
property uchar diffuse_green
property uchar diffuse_blue
end_header
0.835918 -1.43386 3.83789 0.128046 0.0683663 -0.989409 172 124 124
0.848952 -1.43314 3.83595 0.128264 0.0683215 -0.989384 173 125 124
0.862277 -1.43314 3.83768 0.128263 0.0683214 -0.989384 176 128 127
0.894793 -1.42042 3.83506 0.118705 0.0631998 -0.990916 190 142 141
0.907442 -1.41882 3.8285 0.119539 0.0605383 -0.990982 188 141 140
0.999077 -1.41374 3.82052 -0.232703 0.183996 -0.954984 196 146 144
1.01218 -1.41374 3.81733 -0.232704 0.183996 -0.954984 196 145 143
1.01923 -1.40226 3.81782 -0.232704 0.183996 -0.954984 179 128 125
1.03188 -1.4028 3.817 -0.233891 0.187105 -0.95409 178 127 124
1.04961 -1.40297 3.81914 0.113148 0.0723437 -0.990941 179 128 124
1.06347 -1.40385 3.82517 0.112941 0.0724028 -0.99096 178 128 124
1.0757 -1.40532 3.83323 0.112691 0.0719092 -0.991025 175 124 121
1.08921 -1.40556 3.8378 0.112769 0.0718969 -0.991017 175 123 118
1.10144 -1.40352 3.82923 0.120006 0.0711764 -0.990218 174 122 118
1.11669 -1.40121 3.82059 0.123248 0.0699247 -0.989909 173 121 118
1.10986 -1.38951 3.82058 0.123247 0.0699245 -0.989909 189 137 133
1.1233 -1.38951 3.82224 0.123247 0.0699247 -0.989909 189 137 133
1.13746 -1.38858 3.81971 0.123426 0.0702355 -0.989865 189 136 133
1.16596 -1.38365 3.80985 0.322206 -0.185171 -0.928383 186 135 131
1.18287 -1.38013 3.79933 0.340082 -0.184615 -0.922096 186 134 130
1.19653 -1.381 3.80846 0.338511 -0.179142 -0.923752 185 133 129
1.21078 -1.38004 3.80834 0.338508 -0.179154 -0.923751 182 130 125
1.22503 -1.37973 3.81163 0.338559 -0.179149 -0.923733 179 128 124
1.23936 -1.37975 3.81689 0.338559 -0.179149 -0.923734 180 129 125
1.25371 -1.37975 3.82215 0.338559 -0.179149 -0.923734 179 127 124
1.2678 -1.37911 3.8203 0.318823 -0.164899 -0.93336 177 126 122
1.28034 -1.37665 3.81229 0.318077 -0.164821 -0.933628 173 122 117
1.29464 -1.37665 3.81717 0.318077 -0.164821 -0.933628 172 121 117
1.30249 -1.36373 3.81757 0.318077 -0.164821 -0.933628 174 123 120
1.31467 -1.36073 3.8069 0.324197 -0.169417 -0.930695 175 123 120
1.32865 -1.36023 3.80938 0.32394 -0.169121 -0.930839 176 124 120
1.35114 -1.35486 3.80302 -0.0230069 -0.255837 -0.966446 180 128 125
1.36551 -1.35487 3.80269 -0.0230071 -0.255836 -0.966446 182 130 126
1.37989 -1.35487 3.80235 -0.0230059 -0.255836 -0.966446 181 128 126
1.39358 -1.35398 3.79722 -0.0232608 -0.255623 -0.966497 177 125 123
1.40799 -1.35399 3.79712 -0.0232603 -0.255624 -0.966497 177 126 124
1.42239 -1.354 3.79686 -0.0223095 -0.254991 -0.966686 177 126 124
1.43663 -1.35451 3.79971 0.27256 0.0264377 -0.961775 178 127 125
1.44347 -1.34203 3.80225 0.272451 0.0266383 -0.961801 161 110 108
1.45734 -1.34387 3.80248 -0.0265884 -0.252145 -0.967324 163 111 109
1.47171 -1.34387 3.80209 -0.0265872 -0.252145 -0.967324 162 111 109
1.48983 -1.34342 3.8014 -0.0220663 -0.249425 -0.968143 163 112 109
1.50249 -1.3401 3.81011 0.0381669 -0.35902 -0.932549 154 103 100
1.51882 -1.34364 3.80183 -0.0258653 -0.251476 -0.967518 162 111 107
1.54148 -1.33061 3.809 -0.219063 -0.226779 -0.94899 166 115 112
1.53486 -1.34321 3.81571 -0.218711 -0.226044 -0.949247 159 107 104
1.54884 -1.34321 3.81249 -0.218711 -0.226044 -0.949247 159 108 104
1.55519 -1.33112 3.80815 -0.218712 -0.226044 -0.949247 165 114 110
1.56956 -1.32956 3.80188 0.0727068 0.0600028 -0.995547 165 114 110
1.58319 -1.32966 3.80313 0.0746351 0.056983 -0.995582 164 113 108
1.59743 -1.32838 3.79821 0.073951 0.060033 -0.995453 164 112 108
1.61109 -1.32838 3.79923 0.0739513 0.060033 -0.995453 164 111 108
1.62476 -1.32838 3.80024 0.073951 0.060033 -0.995453 161 110 107
1.6445 -1.31717 3.7988 -0.102329 0.196866 -0.975076 153 102 100
1.65761 -1.31717 3.79743 -0.10233 0.196866 -0.975076 148 98 95
1.65841 -1.31521 3.78818 0.0481286 0.342501 -0.938284 147 97 94
1.66886 -1.31538 3.78629 -0.102351 0.196809 -0.975085 148 98 95
1.68472 -1.31827 3.79434 -0.101824 0.197808 -0.974938 146 94 89
1.69758 -1.31809 3.79038 -0.10128 0.198408 -0.974873 144 92 88
1.72027 -1.30439 3.79692 0.0480116 0.341904 -0.938508 139 87 84
1.73404 -1.3044 3.79762 0.048011 0.341904 -0.938508 134 83 79
1.74755 -1.30517 3.80193 0.0486516 0.341408 -0.938655 131 79 75
1.76161 -1.30442 3.79902 0.0480215 0.341903 -0.938507 129 77 74
1.73466 -1.22239 3.37647 -0.495895 0.305845 -0.81274 128 81 86
1.75485 -1.21196 3.37308 -0.495859 0.30593 -0.81273 143 123 154
1.76641 -1.21196 3.366 -0.495859 0.30593 -0.81273 100 92 116
1.75403 -1.18645 3.25184 -0.3809 -0.73051 -0.566808 91 81 93
1.74361 -1.14574 3.04541 -0.228507 -0.0195434 -0.973346 140 100 101
1.7532 -1.14421 3.03435 -0.429146 -0.0650745 -0.900888 153 108 107
1.8068 -1.13521 3.02376 0.0221554 0.310023 -0.950471 180 126 118
1.78082 -1.11372 2.90891 0.376938 -0.32218 -0.868399 183 128 120
1.8204 -1.12734 3.02039 -0.014776 0.725464 -0.688101 188 132 125
1.83548 -1.12842 3.02752 0.0827367 -0.230026 -0.969661 184 128 121
1.84871 -1.12819 3.02743 0.0827305 -0.230096 -0.969645 182 126 118
1.86188 -1.12725 3.02912 0.0833245 -0.229502 -0.969735 181 126 117
1.87519 -1.12731 3.02993 0.061689 0.0175739 -0.997941 185 133 127
1.88696 -1.12723 3.03171 0.0833391 -0.229504 -0.969733 186 134 127
1.88754 -1.1273 3.03096 0.061684 0.0174164 -0.997944 186 134 126
1.89971 -1.12777 3.03402 0.395924 -0.192378 -0.897906 187 134 125
1.90558 -1.11677 3.02905 0.0832608 -0.229604 -0.969716 179 126 117
0.561065 -1.47038 3.86867 0.125507 0.0698698 -0.989629 190 153 169
0.580997 -1.4583 3.87085 0.125504 0.069868 -0.98963 187 145 154
0.608492 -1.55889 4.33887 -0.00878187 0.0532378 -0.998543 186 138 140
0.594274 -1.4583 3.87254 0.125504 0.069868 -0.98963 185 143 152
0.607326 -1.45725 3.86902 0.125529 0.0698571 -0.989627 187 144 152
0.620418 -1.45643 3.8666 0.124866 0.0705138 -0.989665 191 148 153
0.651321 -1.56058 4.34685 -0.00885804 0.0539012 -0.998507 187 138 136
0.658338 -1.54803 4.34595 -0.00885044 0.0539058 -0.998507 201 151 149
0.658286 -1.54778 4.34469 -0.00901472 0.0539776 -0.998501 201 151 149
0.672444 -1.54778 4.34456 -0.00900388 0.0539788 -0.998502 198 149 146
0.658363 -1.4559 3.87041 -0.192271 0.320538 -0.927517 194 147 147
0.678487 -1.4419 3.85599 -0.193009 0.320914 -0.927233 183 138 141
0.671453 -1.45474 3.86183 -0.192762 0.320406 -0.92746 191 147 151
0.692177 -1.44078 3.85531 0.127187 0.069449 -0.989444 181 136 138
0.691933 -1.43986 3.85071 0.123829 0.0722462 -0.98967 181 136 138
0.705456 -1.44078 3.85701 0.127188 0.0694489 -0.989444 179 132 132
0.718269 -1.43916 3.85055 0.126892 0.0696436 -0.989469 177 131 132
0.731551 -1.43916 3.85226 0.126891 0.0696436 -0.989469 178 131 131
0.770996 -1.4385 3.85242 0.074317 0.0634439 -0.995214 174 128 126
0.777304 -1.42605 3.85013 0.129788 0.0680357 -0.989205 185 137 135
0.790611 -1.42605 3.85187 0.129788 0.0680357 -0.989205 184 134 133
0.816778 -1.42479 3.84889 0.129245 0.0683404 -0.989255 180 131 130
0.829584 -1.4234 3.84357 0.128797 0.0687034 -0.989288 182 133 133
0.842905 -1.4234 3.8453 0.128797 0.0687034 -0.989288 183 135 134
0.855272 -1.42119 3.83852 -0.0275144 0.0663354 -0.997418 184 136 135
0.868524 -1.42138 3.83673 0.118997 0.0633286 -0.990873 186 139 138
0.868433 -1.42119 3.83815 -0.0275167 0.0663352 -0.997418 187 139 138
0.880823 -1.41886 3.82552 0.118996 0.0634479 -0.990865 189 141 140
0.887392 -1.40727 3.82705 0.118997 0.063448 -0.990865 173 125 123
0.900732 -1.40736 3.82906 0.119002 0.0634534 -0.990864 175 126 126
0.967782 -1.40218 3.81155 0.119139 0.0633204 -0.990856 172 121 119
0.981076 -1.40198 3.81064 0.119331 0.0609155 -0.990984 173 123 121
0.993361 -1.40038 3.80918 0.119825 0.0648165 -0.990677 177 128 124
1.00095 -1.39081 3.82118 0.119717 0.0650065 -0.990677 191 142 139
1.00789 -1.4002 3.81184 -0.230483 0.184514 -0.955423 178 129 125
1.02585 -1.39133 3.82073 -0.233891 0.187105 -0.95409 193 142 138
1.04213 -1.38956 3.81324 0.121023 0.0709974 -0.990108 190 139 136
1.08341 -1.39058 3.8312 0.122293 0.0698309 -0.990035 189 138 135
1.09571 -1.39043 3.823 0.123407 0.0684842 -0.98999 189 138 134
1.10305 -1.37783 3.82055 0.123246 0.0699246 -0.98991 178 126 122
1.1159 -1.37855 3.82557 0.123194 0.0699465 -0.989915 174 123 120
1.12992 -1.37781 3.82389 0.123247 0.0699248 -0.98991 170 119 117
1.14174 -1.3746 3.81477 0.457118 -0.286424 -0.842024 173 121 117
1.15841 -1.3723 3.81242 0.455584 -0.284663 -0.843451 171 119 115
1.17656 -1.36717 3.79441 0.340082 -0.184615 -0.922096 167 116 112
1.19022 -1.36888 3.80848 0.345535 -0.191395 -0.91868 169 117 113
1.20444 -1.36683 3.80207 0.338484 -0.179091 -0.923772 170 118 113
1.21868 -1.36673 3.80679 0.338559 -0.179149 -0.923734 169 117 113
1.233 -1.36673 3.81204 0.338559 -0.179149 -0.923734 170 120 115
1.24735 -1.36673 3.8173 0.33856 -0.179149 -0.923733 172 122 118
1.26158 -1.36656 3.82036 0.319284 -0.16517 -0.933154 172 121 118
1.28785 -1.36329 3.81028 0.318051 -0.164813 -0.933638 174 123 119
1.29636 -1.34939 3.80608 0.315456 -0.161405 -0.935113 173 121 117
1.30909 -1.34892 3.80842 0.320559 -0.167314 -0.932335 170 119 116
1.32956 -1.34284 3.80037 -0.0230092 -0.255836 -0.966446 164 112 109
1.32168 -1.34662 3.80111 -0.0497331 -0.0199042 -0.998564 168 116 112
1.34395 -1.34277 3.79973 -0.0230004 -0.255841 -0.966445 165 113 110
1.33676 -1.35486 3.80336 -0.0230059 -0.255837 -0.966446 179 127 123
1.35825 -1.34283 3.79968 -0.0230083 -0.255837 -0.966446 164 112 109
1.37203 -1.34212 3.79551 -0.028616 -0.257271 -0.965916 165 113 111
1.38781 -1.34388 3.8046 -0.023041 -0.255832 -0.966447 163 112 110
1.40103 -1.34249 3.79679 -0.00501896 -0.25655 -0.966518 162 111 110
1.41495 -1.34197 3.79366 -0.023269 -0.256109 -0.966368 161 110 109
1.42355 -1.33172 3.79983 -0.0234945 -0.256324 -0.966305 173 122 120
1.4508 -1.32868 3.80075 0.268192 0.0312433 -0.962859 176 125 122
1.48098 -1.32895 3.8104 0.0346526 -0.359562 -0.932478 174 123 121
1.49639 -1.32931 3.81286 0.035122 -0.359202 -0.932599 173 121 119
1.50967 -1.32727 3.80242 0.0350987 -0.359144 -0.932622 170 119 117
1.52182 -1.31769 3.79875 0.0726817 0.0600093 -0.995548 162 110 108
1.52799 -1.32966 3.80777 -0.21758 -0.228522 -0.948913 167 116 112
1.53548 -1.31776 3.80011 0.0726943 0.0600027 -0.995548 160 110 107
1.54908 -1.31776 3.8011 0.072706 0.0600022 -0.995547 161 111 107
1.5627 -1.31776 3.80209 0.072717 0.0600023 -0.995546 162 112 108
1.57691 -1.31655 3.79739 0.0739334 0.0600338 -0.995455 163 112 106
1.59055 -1.31655 3.79841 0.0739448 0.0600333 -0.995454 160 109 104
1.60319 -1.31556 3.79422 0.0736939 0.0599981 -0.995475 159 108 103
1.61787 -1.31654 3.80045 0.073951 0.060033 -0.995453 157 107 103
1.62637 -1.30547 3.80132 -0.10309 0.193462 -0.975677 147 98 94
1.62851 -1.31368 3.7863 0.0730903 0.0611771 -0.995447 154 105 102
1.63728 -1.30514 3.79725 -0.101503 0.197102 -0.975114 147 97 94
1.65129 -1.30597 3.80035 -0.102329 0.196866 -0.975076 144 94 92
1.65196 -1.30438 3.79273 -0.103052 0.195875 -0.975199 145 95 92
1.66505 -1.30406 3.7926 0.0481332 0.3425 -0.938284 145 95 92
1.66521 -1.30399 3.78958 -0.117374 0.16212 -0.979766 144 94 91
1.67875 -1.30406 3.79331 0.048132 0.3425 -0.938284 143 90 87
1.67827 -1.30399 3.78802 -0.117372 0.16212 -0.979766 141 89 85
1.69134 -1.30399 3.78645 -0.117372 0.16212 -0.979766 142 89 86
1.70381 -1.30187 3.78242 0.0498064 0.342958 -0.938029 144 91 89
1.71319 -1.29318 3.80064 0.0480122 0.341904 -0.938508 151 99 96
1.72694 -1.29318 3.80134 0.0480116 0.341904 -0.938508 150 98 94
1.74071 -1.29318 3.80205 0.0480111 0.341904 -0.938508 144 92 88
1.75238 -1.29191 3.79658 0.0526013 0.341925 -0.938254 139 88 84
1.73074 -1.2112 3.38307 -0.495895 0.305845 -0.81274 127 78 80
1.74327 -1.21196 3.38013 -0.495859 0.30593 -0.81273 127 88 104
1.75019 -1.20021 3.37645 -0.415586 -0.209655 -0.885061 141 117 144
1.75619 -1.19475 3.34155 -0.45289 0.0558594 -0.889815 107 101 127
1.7422 -1.16666 3.17663 -0.411681 0.301943 -0.859854 93 77 88
1.73775 -1.13538 3.04657 -0.228507 -0.0195435 -0.973346 124 87 91
1.74939 -1.13538 3.04385 -0.228507 -0.0195434 -0.973346 156 113 113
1.7658 -1.12433 3.03564 -0.227975 -0.0199013 -0.973464 178 127 121
1.7764 -1.12351 3.02808 -0.227649 -0.0199738 -0.973538 179 127 116
1.77635 -1.12352 3.02828 -0.226951 -0.0174665 -0.97375 179 127 116
1.80038 -1.12479 3.02685 0.0220339 0.311262 -0.950069 185 130 121
1.81258 -1.1245 3.02553 0.0221381 0.310059 -0.950459 187 131 123
1.82903 -1.11697 3.02449 0.0831921 -0.229354 -0.969781 172 116 108
1.84219 -1.11673 3.02429 0.0833293 -0.229497 -0.969736 170 114 106
1.85585 -1.11669 3.02607 0.0833244 -0.229502 -0.969735 170 115 105
1.86834 -1.11669 3.02717 0.0833267 -0.229502 -0.969735 173 122 114
1.88092 -1.11666 3.02869 0.0833419 -0.229504 -0.969733 172 120 113
1.89307 -1.11677 3.02798 0.083263 -0.229603 -0.969716 174 122 114
1.89959 -1.10599 3.02509 0.0832468 -0.229547 -0.969731 174 121 113
1.91205 -1.10618 3.0271 0.0832583 -0.229604 -0.969717 172 120 112
1.83743 -1.01191 2.51059 -0.173193 0.364031 -0.915143 183 129 116
1.84951 -1.0115 2.51986 -0.179768 0.349784 -0.919421 184 129 117
1.85443 -1.00271 2.51485 -0.179561 0.361676 -0.914849 181 125 114
-0.167448 -2.0395 6.20546 0.102685 0.120551 -0.987382 253 252 254
-0.149813 -2.0395 6.2073 0.102685 0.120551 -0.987382 246 246 253
-0.119304 -2.01889 6.16799 0.101399 0.123195 -0.987189 173 167 200
-0.130283 -2.03712 6.18986 0.102672 0.11999 -0.987452 218 214 232
-0.101047 -2.018 6.16245 0.101412 0.1232 -0.987187 201 183 214
-0.111919 -2.03615 6.18386 0.1027 0.119922 -0.987457 176 165 199
-0.0824795 -2.01259 6.13866 0.101173 0.123176 -0.987214 216 190 216
0.515861 -1.47229 3.9322 0.130423 -0.111902 -0.985123 231 220 228
0.528639 -1.46847 3.91507 0.135985 0.0598729 -0.9889 215 195 214
0.587395 -1.44604 3.869 0.125531 0.0698558 -0.989627 181 140 148
0.600591 -1.4457 3.86898 0.125529 0.0698572 -0.989627 182 139 147
0.665371 -1.53554 4.34529 -0.00901472 0.0539776 -0.998501 186 137 135
0.665381 -1.44297 3.86414 -0.19402 0.322991 -0.926301 182 137 141
0.672756 -1.43136 3.8645 -0.194022 0.322998 -0.926298 188 143 146
0.685813 -1.43057 3.8621 0.126139 0.0705044 -0.989504 187 142 145
0.698714 -1.42922 3.85696 0.127188 0.069449 -0.989444 188 142 143
0.711515 -1.42769 3.8506 0.128182 0.0708099 -0.98922 186 139 141
0.724489 -1.42673 3.84834 0.0741216 0.0640864 -0.995188 184 138 139
0.737844 -1.42711 3.85125 0.0743102 0.063736 -0.995196 183 137 137
0.751099 -1.42697 3.85199 0.129189 0.0687693 -0.989233 185 136 136
0.751302 -1.42779 3.85564 0.0743166 0.063729 -0.995196 185 136 136
0.764309 -1.427 3.85265 0.0743173 0.0634439 -0.995214 184 136 135
0.783854 -1.41445 3.85179 0.129788 0.0680357 -0.989205 177 127 126
0.796714 -1.41319 3.84706 0.129245 0.0683402 -0.989255 173 124 121
0.810017 -1.41319 3.84878 0.129245 0.0683403 -0.989255 170 122 120
0.823331 -1.41319 3.85052 0.129245 0.0683403 -0.989255 170 121 121
0.8682 -1.39777 3.83616 -0.0272628 0.0663632 -0.997423 180 131 130
0.861268 -1.40828 3.83125 -0.0272521 0.0663421 -0.997425 170 121 119
0.880675 -1.39575 3.82731 0.119001 0.0634537 -0.990865 178 130 128
0.874466 -1.40844 3.83166 -0.0274735 0.0664341 -0.997413 172 124 123
0.874534 -1.40838 3.83113 0.118785 0.0633073 -0.9909 172 124 123
0.893987 -1.39575 3.82891 0.119002 0.0634537 -0.990864 183 134 132
0.907305 -1.39576 3.8306 0.119003 0.0634534 -0.990864 187 138 137
0.919831 -1.39398 3.82298 0.119002 0.0635692 -0.990857 186 137 137
0.933147 -1.39398 3.82458 0.119002 0.0635692 -0.990857 184 135 132
0.961035 -1.39059 3.81148 0.119141 0.0633204 -0.990856 189 138 136
0.973481 -1.38917 3.80954 0.119333 0.0654497 -0.990695 189 139 136
0.994577 -1.37996 3.82516 0.119759 0.0648094 -0.990685 181 131 128
0.987771 -1.39112 3.82126 0.119722 0.0647789 -0.990692 191 141 138
1.00794 -1.37997 3.82681 0.119759 0.06481 -0.990685 178 128 126
1.02029 -1.37931 3.822 -0.23414 0.18726 -0.953998 178 128 126
1.03535 -1.37794 3.81324 0.121024 0.0709973 -0.990107 179 128 126
1.04908 -1.3775 3.81287 0.121615 0.0714149 -0.990005 179 128 126
1.06303 -1.37842 3.82327 0.122836 0.0695297 -0.989988 178 128 125
1.07648 -1.37855 3.82665 0.122838 0.0695359 -0.989988 178 126 122
1.08984 -1.3784 3.82638 0.122848 0.0695769 -0.989983 178 126 121
1.08284 -1.36615 3.81886 0.123244 0.0699246 -0.98991 194 142 138
1.09624 -1.36615 3.82053 0.123245 0.0699245 -0.98991 187 135 131
1.10966 -1.36615 3.82222 0.123241 0.0699241 -0.98991 182 130 126
1.12332 -1.36657 3.82609 0.123101 0.0699335 -0.989927 181 129 125
1.1676 -1.35775 3.80563 0.339547 -0.185157 -0.922185 183 131 128
1.18286 -1.35647 3.80504 0.339508 -0.183607 -0.922509 181 129 125
1.21234 -1.35375 3.80195 0.338559 -0.179149 -0.923734 181 129 124
1.22678 -1.35598 3.82008 0.337661 -0.177771 -0.924328 180 128 124
1.24167 -1.35469 3.82595 0.29865 -0.017635 -0.9542 177 125 121
1.25569 -1.35421 3.82477 0.337355 -0.177597 -0.924473 176 124 120
1.25546 -1.35391 3.82038 0.337963 -0.17825 -0.924125 177 125 121
1.26963 -1.35365 3.82206 0.336445 -0.176696 -0.924978 173 121 118
1.32232 -1.3308 3.79729 -0.0230095 -0.255835 -0.966447 177 125 122
1.33666 -1.33082 3.79701 -0.0230123 -0.255836 -0.966446 180 128 125
1.351 -1.33081 3.79665 -0.0230117 -0.255837 -0.966446 181 129 127
1.36535 -1.33081 3.7963 -0.0230081 -0.255837 -0.966446 181 128 126
1.38055 -1.33185 3.80158 -0.0230416 -0.255832 -0.966447 179 125 124
1.39492 -1.33185 3.80124 -0.023041 -0.255832 -0.966447 177 124 122
1.40813 -1.33047 3.79345 -0.0232182 -0.255934 -0.966415 176 123 122
1.40203 -1.31982 3.79789 -0.0230398 -0.255832 -0.966447 169 116 115
1.41523 -1.31845 3.7901 -0.0232164 -0.255934 -0.966416 171 119 118
1.42922 -1.31906 3.79265 0.673148 0.0595789 -0.737104 172 121 119
1.46104 -1.31975 3.82153 0.0184986 -0.379424 -0.925038 164 112 110
1.47429 -1.31751 3.80961 0.0346813 -0.359726 -0.932413 164 112 110
1.48902 -1.31709 3.80788 0.0351341 -0.3592 -0.932599 163 110 109
1.51645 -1.30765 3.80848 0.0691803 0.0550342 -0.996085 165 114 112
1.52918 -1.30657 3.80355 0.0721053 0.0606113 -0.995554 165 114 112
1.54212 -1.30615 3.8023 0.0733311 0.0600876 -0.995496 164 113 109
1.55643 -1.30474 3.79659 0.0739143 0.0600347 -0.995456 164 113 108
1.57004 -1.30474 3.7976 0.0739219 0.0600343 -0.995456 163 113 107
1.56969 -1.30548 3.80119 0.0749249 0.0597302 -0.995399 163 113 106
1.58368 -1.30472 3.79861 0.0739323 0.060034 -0.995455 159 108 103
1.59763 -1.30402 3.79625 -0.177097 0.0717866 -0.981572 152 102 97
1.61018 -1.30494 3.79828 -0.17336 0.0744626 -0.98204 148 98 93
1.60426 -1.29263 3.79588 -0.177096 0.0717866 -0.981572 155 105 99
1.6193 -1.29354 3.80011 -0.103251 0.193357 -0.97568 155 105 101
1.63239 -1.29354 3.79873 -0.103251 0.193358 -0.97568 155 106 102
1.64575 -1.29294 3.79443 -0.103247 0.193389 -0.975675 156 106 103
1.6589 -1.29275 3.7922 -0.117372 0.16212 -0.979766 155 106 103
1.672 -1.29318 3.79852 0.048008 0.341905 -0.938508 153 101 97
1.68571 -1.29318 3.79923 0.0480074 0.341904 -0.938508 153 101 97
1.69944 -1.29318 3.79993 0.0480132 0.341904 -0.938508 151 99 96
1.718 -1.28029 3.79567 0.0480199 0.341885 -0.938514 135 83 79
1.71752 -1.27986 3.79331 0.0480222 0.341882 -0.938515 135 84 79
1.73132 -1.27991 3.79427 0.244632 0.181236 -0.952528 135 84 79
1.74754 -1.28171 3.80658 0.0480105 0.341904 -0.938508 134 83 78
1.76166 -1.28053 3.80039 0.0547899 0.341445 -0.938304 134 83 78
1.72682 -1.20001 3.38967 -0.495895 0.305845 -0.81274 128 78 78
1.7384 -1.20001 3.3826 -0.495895 0.305845 -0.81274 121 79 88
1.74046 -1.18447 3.35792 -0.496802 0.306332 -0.812003 127 95 116
1.74991 -1.18285 3.34198 -0.452871 0.0557926 -0.889829 132 122 150
1.7607 -1.1822 3.33229 -0.452871 0.0557004 -0.889835 92 89 109
1.7294 -1.13381 3.11701 -0.407135 0.306304 -0.860476 90 74 84
1.73399 -1.12669 3.05716 -0.364065 0.196785 -0.910347 117 86 93
1.74352 -1.12504 3.045 -0.228507 -0.0195435 -0.973346 149 111 112
1.75885 -1.11321 3.03237 -0.227997 -0.0202295 -0.973452 166 118 113
1.75515 -1.12504 3.04228 -0.228507 -0.0195435 -0.973346 170 125 122
1.77156 -1.114 3.03408 -0.227975 -0.0199015 -0.973464 166 112 104
1.77293 -1.11498 3.03958 -0.227815 -0.0204063 -0.973491 165 112 103
1.79373 -1.11421 3.02908 0.14392 0.470023 -0.870842 166 111 102
1.819 -1.11424 3.0298 0.0221349 0.310057 -0.95046 167 110 103
1.83566 -1.10529 3.02102 0.0833283 -0.229497 -0.969736 178 123 114
1.84954 -1.10516 3.02403 0.0819809 -0.227924 -0.970222 175 121 110
1.86231 -1.10613 3.02416 0.0833244 -0.229502 -0.969735 170 117 106
1.87557 -1.10587 3.02927 0.0825903 -0.227723 -0.970217 175 122 114
1.94312 -1.13676 3.26472 0.0836434 -0.229807 -0.969635 182 128 121
1.95619 -1.13673 3.26636 0.0836371 -0.229825 -0.969632 181 127 121
1.9678 -1.13613 3.26224 0.0461057 0.106781 -0.993213 178 125 117
1.98138 -1.13499 3.26016 0.0847548 -0.229602 -0.969587 176 124 115
1.99313 -1.13635 3.26124 0.08433 -0.230916 -0.969312 179 127 118
1.83215 -1.00271 2.51922 -0.179562 0.361676 -0.914848 176 123 113
1.84299 -1.00271 2.5171 -0.179562 0.361676 -0.914849 182 126 114
1.84979 -0.993947 2.52035 -0.188297 0.0304609 -0.98164 172 115 105
1.86147 -0.993533 2.51911 0.086655 0.0586011 -0.994513 170 114 104
-0.283649 -2.02819 6.204 0.0838381 0.0457244 -0.99543 180 164 188
-0.264449 -2.02738 6.19048 0.0896839 0.0517869 -0.994623 169 157 184
-0.264626 -2.02749 6.19248 0.0896869 0.0518414 -0.99462 169 157 184
-0.24649 -2.02728 6.19025 0.0904987 0.0517361 -0.994552 164 156 179
-0.246252 -2.02714 6.18754 0.0904443 0.0517132 -0.994558 164 156 179
-0.228723 -2.02728 6.19186 0.0904988 0.0517362 -0.994552 213 209 225
-0.216254 -2.03223 6.1935 0.103886 0.121305 -0.987164 251 248 254
-0.219636 -2.02615 6.19476 0.659615 0.490086 -0.569845 242 239 248
-0.198611 -2.03211 6.19481 0.103855 0.121102 -0.987192 253 251 253
-0.194081 -2.02425 6.20453 0.10269 0.120553 -0.987381 252 251 254
-0.207613 -2.01689 6.19573 0.103854 0.121102 -0.987192 247 243 251
-0.176454 -2.02425 6.20639 0.102686 0.120557 -0.987381 252 252 254
-0.158822 -2.02425 6.20822 0.102686 0.120551 -0.987382 242 241 250
-0.139497 -2.01019 6.17995 -0.552762 0.549993 -0.626069 190 182 207
-0.128792 -2.00437 6.17425 0.10226 0.122383 -0.987201 184 172 202
-0.0920902 -2.0009 6.15601 0.10086 0.121577 -0.987444 210 186 210
0.521689 -1.45565 3.90896 0.13528 0.0606666 -0.988948 229 214 227
0.553498 -1.43571 3.87118 0.126624 0.0642306 -0.989869 181 141 151
0.56708 -1.43449 3.86724 0.12553 0.0698559 -0.989627 187 143 149
0.580663 -1.43449 3.86896 0.125531 0.069856 -0.989627 186 142 147
0.593817 -1.43496 3.87156 -0.265057 0.691993 -0.671484 186 141 145
0.606792 -1.43263 3.86295 0.125545 0.069855 -0.989626 183 139 146
0.620355 -1.43403 3.87171 0.122515 0.0716853 -0.989874 184 139 144
0.639816 -1.42113 3.8679 0.126501 0.0690434 -0.989561 193 146 144
0.653195 -1.4216 3.87191 0.126845 0.0708246 -0.989391 188 144 146
0.665454 -1.41764 3.85344 0.127187 0.0694488 -0.989444 186 142 144
0.678712 -1.41764 3.85515 0.127188 0.0694489 -0.989444 184 139 141
0.691976 -1.41766 3.85689 0.127189 0.0694489 -0.989444 181 136 138
0.705006 -1.41683 3.85437 0.124033 0.0728595 -0.9896 181 137 137
0.717621 -1.41469 3.84494 0.129922 0.069035 -0.989118 181 135 136
0.731244 -1.41588 3.85274 0.0743308 0.0637243 -0.995196 180 134 133
0.744353 -1.41539 3.85191 0.129189 0.0687693 -0.989233 180 132 133
0.744488 -1.41588 3.85373 0.0743299 0.0637242 -0.995196 180 133 133
0.75764 -1.4154 3.85367 0.129189 0.0687694 -0.989233 180 131 130
0.776954 -1.40241 3.84942 0.130181 0.0687637 -0.989103 184 135 134
0.790404 -1.40286 3.85343 0.129788 0.0680357 -0.989205 181 132 131
0.803055 -1.40104 3.84584 0.130435 0.0683079 -0.989101 180 131 129
0.81621 -1.40065 3.84545 0.130526 0.0682877 -0.98909 180 131 130
0.829515 -1.40065 3.84721 0.130526 0.0682877 -0.98909 181 131 131
0.842827 -1.40051 3.84675 0.130541 0.068271 -0.989089 181 131 131
0.855422 -1.39869 3.84124 -0.0274392 0.0662481 -0.997426 183 134 132
0.861748 -1.38665 3.83836 -0.0276712 0.0662342 -0.99742 176 126 124
0.861776 -1.38662 3.83829 0.219256 0.0421876 -0.974755 176 126 124
0.874503 -1.38553 3.83433 0.118852 0.0635097 -0.990879 175 125 123
0.88725 -1.38417 3.82892 0.119003 0.0634535 -0.990864 175 126 124
0.900561 -1.38417 3.83052 0.119003 0.0634535 -0.990864 179 129 128
0.913656 -1.38369 3.82962 0.104238 0.0683015 -0.992204 180 131 129
0.926297 -1.38223 3.82358 0.112977 0.0683163 -0.991246 178 129 126
0.95429 -1.37898 3.81105 0.11915 0.0633174 -0.990855 179 128 125
0.967596 -1.37898 3.81265 0.119149 0.0633174 -0.990855 181 131 128
0.981011 -1.37951 3.8212 0.119723 0.0647789 -0.990692 182 132 129
0.98759 -1.3679 3.82276 0.119722 0.0647789 -0.990692 185 135 132
1.00116 -1.36834 3.82672 0.119758 0.0648097 -0.990686 183 133 131
1.01369 -1.36675 3.81996 -0.234136 0.187343 -0.953983 184 134 132
1.0264 -1.36556 3.81539 0.100189 0.0679755 -0.992644 188 137 134
1.04213 -1.36608 3.8138 0.121686 0.0710935 -0.990019 190 139 137
1.05548 -1.36608 3.81543 0.121684 0.0710937 -0.99002 194 143 140
1.06827 -1.36757 3.82368 0.12352 0.0698107 -0.989883 196 146 143
1.06968 -1.36688 3.82662 0.122837 0.0695358 -0.989988 199 149 146
1.07604 -1.35449 3.81884 0.123243 0.0699247 -0.98991 191 140 137
1.08905 -1.35495 3.82269 0.121851 0.0705674 -0.990037 188 136 131
1.10284 -1.35448 3.82218 0.123244 0.0699246 -0.98991 179 127 125
1.11589 -1.35385 3.82057 0.123222 0.0698993 -0.989914 173 122 119
1.12994 -1.35487 3.82774 0.123102 0.0699335 -0.989927 174 125 122
1.13925 -1.34408 3.8093 -0.25602 0.601598 -0.75666 172 120 116
1.15317 -1.34985 3.81221 -0.293108 0.463228 -0.836365 173 120 117
1.235 -1.34121 3.81472 0.337355 -0.177597 -0.924473 173 121 117
1.24933 -1.34121 3.81995 0.337356 -0.177597 -0.924473 174 122 119
1.26345 -1.3409 3.82081 0.337964 -0.17825 -0.924125 172 120 117
1.279 -1.33572 3.82338 -0.0318307 -0.255437 -0.966302 178 127 123
1.29337 -1.33572 3.82291 -0.0318302 -0.255436 -0.966302 178 126 124
1.31619 -1.32156 3.80905 -0.0359614 -0.255233 -0.966211 165 115 111
1.30927 -1.33332 3.81134 -0.0169417 -0.249617 -0.968196 178 126 123
1.3093 -1.33335 3.81137 -0.032798 -0.246211 -0.968661 177 126 123
1.32925 -1.31906 3.7952 -0.0233765 -0.255799 -0.966448 165 114 111
1.34375 -1.31881 3.79364 -0.0230138 -0.255837 -0.966446 168 115 113
1.35824 -1.31856 3.79222 -0.0536706 0.119743 -0.991353 167 114 112
1.38766 -1.31982 3.79824 -0.0230407 -0.255832 -0.966447 168 115 113
1.40841 -1.30661 3.79767 0.150458 -0.207548 -0.966585 169 117 115
1.42233 -1.30644 3.78674 -0.0232155 -0.255934 -0.966416 169 117 114
1.4341 -1.30618 3.80045 0.255343 -0.368731 -0.893777 174 121 119
1.45355 -1.30753 3.81636 0.0184925 -0.379425 -0.925038 176 124 122
1.46877 -1.30753 3.81667 0.0184927 -0.379424 -0.925038 176 123 121
1.48971 -1.30688 3.80305 0.0690398 0.0551939 -0.996086 169 116 116
1.50292 -1.3077 3.80825 -0.0716912 -0.0995131 -0.99245 167 115 113
1.50961 -1.29588 3.80866 0.0691794 0.0550342 -0.996085 166 114 112
1.53527 -1.29437 3.80251 0.0733294 0.0600875 -0.995496 169 118 115
1.53576 -1.29341 3.79799 0.0750257 0.0592979 -0.995417 169 117 114
1.54958 -1.29295 3.79679 0.0739066 0.060035 -0.995457 168 117 113
1.56263 -1.29406 3.80319 0.293343 0.15547 -0.943281 169 118 113
1.57681 -1.29291 3.79881 0.0739257 0.0600344 -0.995455 163 112 108
1.59044 -1.29291 3.79981 0.0739256 0.0600347 -0.995455 156 106 101
1.59115 -1.29294 3.79968 -0.177144 0.0718335 -0.98156 156 106 101
1.59792 -1.28126 3.79786 -0.177096 0.0717866 -0.981572 162 111 106
1.61397 -1.27984 3.80408 -0.280272 0.132371 -0.95075 163 114 109
1.63944 -1.28175 3.79732 -0.103247 0.193389 -0.975675 145 95 91
1.66368 -1.28088 3.7961 0.0456452 0.336174 -0.940693 145 95 92
1.67654 -1.28015 3.79277 0.047196 0.339184 -0.939536 143 91 87
1.69348 -1.27918 3.79001 0.0491353 0.340451 -0.938977 140 88 84
1.70012 -1.26799 3.79441 0.0491445 0.340451 -0.938977 151 100 95
1.7134 -1.26688 3.78982 0.0477401 0.342614 -0.938263 151 100 94
1.74159 -1.26722 3.79447 0.0495918 0.342682 -0.938142 145 95 89
1.75423 -1.27046 3.81102 0.0480158 0.341904 -0.938508 144 93 88
1.76834 -1.26926 3.80489 0.0547961 0.341444 -0.938303 144 92 88
1.71103 -1.18638 3.39589 -0.455568 -0.181532 -0.871495 130 79 76
1.73022 -1.1855 3.37067 -0.496944 0.305913 -0.812074 124 78 83
1.73697 -1.17363 3.36624 -0.496802 0.306332 -0.812003 121 81 95
1.74807 -1.1733 3.35733 -0.496802 0.306332 -0.812003 146 129 156
1.75959 -1.1733 3.35027 -0.496802 0.306332 -0.812003 101 98 119
1.75787 -1.17199 3.34291 -0.452218 -0.0164523 -0.891756 102 98 120
1.76966 -1.17213 3.33783 -0.452212 -0.0164684 -0.891758 94 85 101
1.73734 -1.12269 3.09677 -0.438805 0.0425235 -0.897576 106 78 85
1.74724 -1.11321 3.03508 -0.227996 -0.0202294 -0.973452 149 107 105
1.76707 -1.10464 3.04073 -0.227815 -0.0204064 -0.973491 183 131 124
1.77869 -1.10464 3.03801 -0.227815 -0.0204064 -0.973491 182 129 118
1.78798 -1.10426 3.03482 0.0219706 0.310185 -0.950422 183 129 119
1.79988 -1.10376 3.03228 0.0220982 0.310052 -0.950463 185 130 121
1.79959 -1.10373 3.03571 0.143919 0.470023 -0.870842 185 130 121
1.8432 -1.09385 3.02149 0.0818668 -0.227947 -0.970226 177 122 113
1.93686 -1.12578 3.26158 0.083642 -0.229807 -0.969636 170 117 112
1.94993 -1.12575 3.26321 0.0836388 -0.229825 -0.969631 169 115 107
1.96176 -1.12506 3.26012 0.0836471 -0.229878 -0.969618 172 119 112
1.97491 -1.12503 3.26213 0.0848181 -0.231034 -0.969242 172 120 112
1.98776 -1.12509 3.26258 0.0845247 -0.231142 -0.969242 172 119 111
2.00011 -1.12528 3.26044 0.083887 -0.229668 -0.969647 170 118 109
1.81538 -0.99183 2.52166 0.0491617 -0.417455 -0.907367 175 122 114
1.82712 -0.991961 2.5208 0.0484937 -0.413135 -0.909378 174 120 112
1.83824 -0.993787 2.52156 -0.179562 0.361676 -0.914849 174 119 106
1.84474 -0.984474 2.52471 0.09631 0.0625892 -0.993382 184 129 117
1.84459 -0.984255 2.52326 -0.179392 0.361552 -0.914931 184 129 117
1.8561 -0.984146 2.52367 0.0961075 0.0632363 -0.99336 183 127 117
-0.372352 -2.02776 6.19296 0.0164911 0.69718 -0.716706 211 179 194
-0.354007 -2.02722 6.19006 0.0833346 0.0451362 -0.995499 214 181 197
-0.336591 -2.02763 6.1949 0.0833279 0.0452091 -0.995496 213 183 200
-0.319885 -2.0288 6.20598 0.0833615 0.0453592 -0.995487 205 178 197
-0.302046 -2.0288 6.20747 0.0833684 0.0453589 -0.995486 190 168 190
-0.292618 -2.01272 6.20396 0.0838381 0.0457244 -0.99543 205 180 201
-0.274799 -2.01272 6.20546 0.0838395 0.0457245 -0.99543 195 176 198
-0.255333 -2.01179 6.18902 0.0902827 0.052025 -0.994556 176 163 187
-0.23421 -2.00653 6.19476 0.659616 0.490086 -0.569845 162 150 173
-0.237679 -2.01185 6.19186 0.0905008 0.0517362 -0.994552 153 144 168
-0.21661 -2.00167 6.19665 0.103853 0.121102 -0.987192 186 174 196
-0.202659 -2.00876 6.20054 0.102735 0.120562 -0.987376 235 227 241
-0.185458 -2.00901 6.20729 0.102689 0.120553 -0.987381 237 232 245
-0.167609 -2.00887 6.20642 0.102676 0.120568 -0.987381 219 217 233
-0.16783 -2.00901 6.20916 0.102686 0.120557 -0.987381 218 216 232
-0.150201 -2.00901 6.21099 0.102685 0.120557 -0.987381 192 182 206
-0.148172 -2.00544 6.18483 0.149505 0.0707859 -0.986224 185 181 206
-0.140301 -1.9915 6.19708 -0.552762 0.549993 -0.626069 200 181 207
-0.121427 -1.99199 6.17811 -0.552944 0.550048 -0.62586 193 175 202
-0.102799 -1.99269 6.16104 -0.552944 0.550048 -0.62586 201 179 203
-0.0835186 -1.97282 6.14646 -0.554671 0.550102 -0.624282 213 185 206
0.520723 -1.4277 3.88705 0.135373 0.0616942 -0.988872 225 209 224
0.527457 -1.43928 3.88725 0.135373 0.0616942 -0.988872 213 191 213
0.546609 -1.42388 3.87107 0.126624 0.0642306 -0.989869 192 157 175
0.574143 -1.4248 3.87654 0.126277 0.0668155 -0.989742 196 151 158
0.599831 -1.41995 3.85704 0.125947 0.0693288 -0.989612 192 144 148
0.613314 -1.4211 3.86459 0.125545 0.069855 -0.989626 187 142 149
0.626444 -1.42063 3.86373 0.125921 0.0691684 -0.989626 186 142 146
0.633034 -1.40937 3.86681 0.12596 0.069318 -0.989611 181 136 139
0.646391 -1.40975 3.87044 0.126519 0.0688884 -0.989569 179 134 137
0.658727 -1.4061 3.85339 0.127186 0.0694487 -0.989445 179 134 135
0.671981 -1.40609 3.85509 0.127188 0.0694489 -0.989444 178 133 134
0.685238 -1.40609 3.8568 0.127188 0.069449 -0.989444 179 133 135
0.698505 -1.40609 3.8585 0.127189 0.069449 -0.989444 181 134 136
0.711513 -1.40526 3.85578 0.126774 0.0696302 -0.989485 182 135 135
0.724147 -1.40314 3.84661 0.129923 0.069035 -0.989118 182 135 134
0.730671 -1.39159 3.84827 0.129923 0.0690351 -0.989118 189 140 141
0.737353 -1.403 3.8476 0.129901 0.0690104 -0.989123 184 136 136
0.743929 -1.39159 3.85001 0.129923 0.069035 -0.989118 188 140 141
0.769839 -1.38975 3.84375 0.130441 0.0683129 -0.9891 188 137 137
0.78312 -1.38975 3.8455 0.130441 0.0683129 -0.9891 184 133 133
0.796411 -1.38975 3.84725 0.130442 0.0683129 -0.9891 179 130 129
0.809523 -1.38924 3.84634 0.130458 0.0683185 -0.989097 177 128 127
0.822758 -1.38905 3.84711 0.130527 0.0682878 -0.98909 175 126 124
0.842624 -1.3773 3.84832 0.130542 0.068271 -0.989089 175 124 123
0.855935 -1.3773 3.85007 0.130542 0.068271 -0.989089 176 125 123
0.849383 -1.3889 3.84841 0.130541 0.068271 -0.989089 177 127 126
0.881537 -1.37486 3.84061 0.130855 0.0682097 -0.989052 175 125 123
0.894857 -1.37486 3.84238 0.130855 0.0682097 -0.989052 175 125 123
0.905753 -1.3695 3.81582 0.119733 0.0636685 -0.990762 179 129 126
0.919332 -1.36919 3.81596 0.11966 0.0631076 -0.990807 181 132 128
0.919032 -1.3695 3.81742 0.119733 0.0636685 -0.990762 181 132 128
0.932322 -1.3695 3.81903 0.119733 0.0636685 -0.990763 183 133 129
0.952683 -1.3574 3.81954 0.118108 0.0627287 -0.991017 185 134 131
0.947556 -1.3674 3.81098 0.119153 0.0633173 -0.990855 183 132 130
0.98083 -1.35629 3.8227 0.119722 0.0647789 -0.990692 183 131 129
0.994169 -1.35629 3.82431 0.119722 0.0647788 -0.990692 178 127 124
1.00817 -1.3575 3.83248 0.119538 0.064905 -0.990706 176 125 123
1.02065 -1.35585 3.8253 0.103457 0.0705112 -0.992132 178 127 125
1.03508 -1.35396 3.81114 0.121719 0.071063 -0.990017 184 133 130
1.05532 -1.34292 3.81748 0.12175 0.0710715 -0.990013 182 129 127
1.04843 -1.35396 3.81278 0.121719 0.071063 -0.990017 189 137 135
1.06899 -1.3435 3.82215 0.121782 0.0706856 -0.990037 180 129 127
1.06241 -1.35514 3.82052 0.121781 0.0706855 -0.990037 192 141 139
1.08226 -1.3433 3.82268 0.12185 0.0705674 -0.990037 179 126 122
1.09565 -1.3433 3.82433 0.121849 0.0705674 -0.990037 179 127 123
1.09564 -1.3433 3.82433 0.121849 0.0705673 -0.990037 179 127 123
1.10835 -1.34097 3.81407 0.122392 0.0692522 -0.990063 181 129 125
1.12455 -1.34155 3.82245 -0.136405 -0.138339 -0.980947 180 128 124
1.12456 -1.34154 3.82245 -0.136404 -0.138339 -0.980947 180 128 124
1.13925 -1.3322 3.81875 -0.25602 0.601598 -0.75666 185 134 132
1.15195 -1.33605 3.81139 -0.25602 0.601598 -0.75666 184 132 128
1.16465 -1.32802 3.81348 -0.25602 0.601598 -0.75666 183 131 127
1.182 -1.33259 3.815 -0.359821 0.227774 -0.904792 188 137 132
1.19543 -1.33174 3.80772 -0.359487 0.2288 -0.904665 185 133 129
1.2154 -1.32147 3.80766 -0.359816 0.227509 -0.90486 170 119 114
1.22997 -1.32398 3.81621 -0.0523522 -0.520793 -0.852076 170 119 115
1.25719 -1.32803 3.81784 0.338533 -0.178575 -0.923854 176 125 121
1.27139 -1.32384 3.81952 -0.0316005 -0.257425 -0.965782 165 114 111
1.28608 -1.32368 3.81996 -0.0318322 -0.255437 -0.966302 166 115 111
1.29315 -1.31166 3.81655 -0.0318334 -0.255437 -0.966302 174 123 119
1.30046 -1.32364 3.8193 -0.0318256 -0.255438 -0.966302 167 116 113
1.30018 -1.32404 3.82116 -0.0155835 -0.257188 -0.966236 167 116 113
1.30833 -1.31042 3.81024 -0.0313137 -0.254788 -0.96649 171 121 117
1.3325 -1.30931 3.80133 -0.733487 0.0012979 -0.679703 169 117 114
1.34906 -1.30958 3.80344 -0.019256 -0.258423 -0.96584 173 119 117
1.36349 -1.30948 3.80266 -0.0191866 -0.258396 -0.965849 173 119 117
1.36997 -1.29692 3.79617 -0.0186304 -0.257321 -0.966146 172 119 116
1.37786 -1.30948 3.80238 -0.0191867 -0.258396 -0.965849 170 117 115
1.38465 -1.29812 3.80653 0.257248 -0.370781 -0.892382 168 115 112
1.39779 -1.29545 3.79616 0.257738 -0.370037 -0.892549 166 113 110
1.41596 -1.29434 3.79621 0.150459 -0.207548 -0.966585 165 113 110
1.44604 -1.29533 3.81121 0.0184925 -0.379425 -0.925038 166 113 111
1.46126 -1.29533 3.81151 0.0184752 -0.379425 -0.925038 168 115 112
1.47756 -1.29445 3.81365 0.253094 -0.370066 -0.893865 166 114 112
1.49604 -1.29588 3.80772 0.0691778 0.0550339 -0.996085 169 117 115
1.53977 -1.27938 3.80509 -0.319828 0.165452 -0.932918 168 117 114
1.55624 -1.28111 3.79704 0.0738883 0.0600169 -0.995459 163 112 108
1.56985 -1.28104 3.79787 0.0737377 0.0602191 -0.995458 166 115 112
1.58406 -1.26728 3.78839 -0.320286 0.166415 -0.932589 172 122 117
1.60807 -1.26853 3.80738 -0.280272 0.132371 -0.95075 167 118 112
1.62071 -1.26853 3.80366 -0.280272 0.132371 -0.95075 165 116 111
1.63323 -1.26879 3.80122 -0.280286 0.132005 -0.950797 160 110 105
1.64573 -1.26908 3.7989 -0.280127 0.132373 -0.950792 158 109 104
1.65825 -1.2671 3.78831 0.0498173 0.339265 -0.939371 158 108 104
1.67195 -1.2671 3.78904 0.0498172 0.339265 -0.939371 155 105 103
1.68731 -1.26799 3.79494 0.055093 0.348509 -0.935685 151 99 95
1.68018 -1.25674 3.79833 0.0468294 0.342565 -0.938326 140 88 83
1.69252 -1.25549 3.79186 0.046557 0.341921 -0.938575 137 85 80
1.70686 -1.25616 3.79632 0.0476382 0.342712 -0.938232 135 85 79
1.71846 -1.25271 3.77703 0.0493589 0.342924 -0.938065 137 87 81
1.73219 -1.25271 3.77775 0.0493589 0.342924 -0.938065 137 87 81
1.74844 -1.25551 3.7965 0.0496613 0.342683 -0.938138 135 85 79
1.76058 -1.255 3.79244 0.0477163 0.342749 -0.938215 135 84 79
1.70399 -1.17475 3.39715 -0.455568 -0.181532 -0.871495 133 83 78
1.71608 -1.17475 3.39083 -0.455568 -0.181532 -0.871495 129 79 76
1.72541 -1.17363 3.3733 -0.496801 0.306332 -0.812003 125 75 77
1.73073 -1.16224 3.36712 -0.528685 -0.346512 -0.774869 124 76 84
1.73207 -1.1617 3.36848 -0.488382 -0.4987 -0.716087 123 76 84
1.74244 -1.162 3.35946 -0.455165 -0.182464 -0.871511 135 107 130
1.75196 -1.1607 3.34564 -0.452212 -0.0164665 -0.891759 120 111 138
1.76377 -1.16085 3.3406 -0.452212 -0.0164685 -0.891758 95 89 107
1.73691 -1.11548 3.12081 -0.438065 0.042663 -0.89793 97 75 83
1.73752 -1.10769 3.07095 -0.439429 0.0499865 -0.896886 116 85 90
1.75536 -1.09938 3.07025 -0.287195 0.257013 -0.922748 153 109 108
1.77283 -1.09431 3.03917 -0.227816 -0.0204064 -0.97349 166 114 105
1.79349 -1.09337 3.03552 0.0220975 0.310052 -0.950463 170 117 106
1.80611 -1.09337 3.03581 0.0220975 0.310052 -0.950463 171 117 108
1.81459 -1.0848 3.03434 -0.227933 -0.0203741 -0.973464 170 115 107
1.89599 -1.12501 3.25456 0.0837075 -0.229904 -0.969607 170 117 109
1.91668 -1.11409 3.25375 0.0837094 -0.229904 -0.969607 190 138 129
1.92962 -1.11409 3.25487 0.08371 -0.229903 -0.969607 192 138 131
1.94258 -1.11409 3.25599 0.083712 -0.229903 -0.969607 191 136 130
1.95553 -1.11409 3.25711 0.08371 -0.229903 -0.969607 193 140 132
1.96864 -1.11404 3.25897 0.0848214 -0.231034 -0.969241 192 139 131
1.98159 -1.11405 3.25989 0.0845282 -0.231157 -0.969238 191 137 129
1.99459 -1.11405 3.26102 0.0845241 -0.231157 -0.969238 190 136 127
2.00662 -1.11434 3.25731 -0.102812 -0.0639155 -0.992645 187 135 123
2.01272 -1.10361 3.25598 -0.102811 -0.0639155 -0.992645 183 130 120
1.8086 -0.983202 2.51732 -0.17789 0.355752 -0.917494 182 129 121
1.82074 -0.982885 2.51868 -0.179146 0.36116 -0.915134 187 132 120
1.83322 -0.98437 2.52627 -0.179561 0.361677 -0.914849 185 130 118
1.83966 -0.974944 2.52873 -0.179561 0.361677 -0.914849 171 116 104
1.83929 -0.974433 2.52534 -0.178756 0.361527 -0.915065 171 116 104
1.85146 -0.97397 2.52405 -0.186585 0.0287977 -0.982017 168 113 102
-0.391357 -2.02062 6.20269 0.0160992 0.697202 -0.716694 208 173 186
-0.363585 -2.01237 6.19509 0.0851007 0.0432974 -0.995431 211 176 189
-0.361128 -2.00388 6.16999 0.070331 0.68725 -0.723008 210 175 187
-0.348174 -2.0138 6.2203 0.0841544 0.0463111 -0.995376 212 178 191
-0.329536 -2.01339 6.2138 0.0835987 0.0465803 -0.99541 214 182 196
-0.311698 -2.01339 6.2153 0.0836004 0.0465804 -0.99541 210 181 199
-0.302926 -1.99796 6.2179 0.0772563 0.0471255 -0.995897 205 174 190
-0.284317 -1.99755 6.21121 0.0775814 0.0469222 -0.995881 201 173 193
-0.265954 -1.99726 6.20691 0.0838408 0.0457245 -0.99543 192 169 191
-0.246635 -1.99643 6.19184 0.0904987 0.0517362 -0.994552 173 156 179
-0.231817 -1.98953 6.21216 0.659615 0.490086 -0.569845 195 174 195
-0.208005 -1.98645 6.19942 0.103851 0.121102 -0.987193 196 174 198
-0.19449 -1.99379 6.20853 0.102918 0.120635 -0.987348 195 177 201
-0.176609 -1.99364 6.20734 0.102677 0.120568 -0.987381 194 180 204
-0.176872 -1.9938 6.21038 0.102916 0.120635 -0.987348 194 179 204
-0.167991 -1.97842 6.21009 0.102676 0.120568 -0.987381 215 186 204
-0.158672 -1.99225 6.20245 0.0509595 0.244552 -0.968296 200 183 207
-0.150252 -1.97762 6.20924 0.0508188 0.244527 -0.96831 216 187 206
-0.132749 -1.97875 6.21554 0.0504898 0.244308 -0.968382 210 181 201
-0.122092 -1.97313 6.19381 -0.554458 0.5496 -0.624913 207 177 196
-0.102363 -1.97251 6.16576 -0.554497 0.549581 -0.624895 202 175 196
0.527262 -1.41612 3.88867 0.135372 0.0616947 -0.988872 202 178 201
0.541451 -1.41659 3.8957 0.144744 0.215524 -0.965712 183 147 170
0.566506 -1.41007 3.86428 0.124866 0.0670941 -0.989902 190 144 151
0.580708 -1.4123 3.87482 0.12633 0.0666833 -0.989744 184 138 143
0.593291 -1.40925 3.86123 0.125986 0.0685431 -0.989661 181 136 143
0.606344 -1.40843 3.85867 0.125947 0.0693288 -0.989612 180 135 142
0.613063 -1.39783 3.86508 0.12596 0.069318 -0.989611 189 145 150
0.626307 -1.39783 3.86676 0.12596 0.069318 -0.989611 191 146 150
0.639256 -1.39659 3.86202 0.125787 0.0696737 -0.989608 191 147 148
0.652696 -1.39728 3.86742 0.126706 0.0678599 -0.989616 187 143 143
0.665751 -1.39643 3.86479 0.127852 0.0673801 -0.989502 183 139 138
0.678662 -1.39511 3.85967 0.127104 0.0689389 -0.989491 185 140 140
0.691937 -1.39513 3.86151 0.129053 0.0679863 -0.989304 193 144 140
0.704515 -1.39275 3.85089 0.129412 0.0679711 -0.989259 190 143 144
0.723729 -1.37933 3.84455 0.131046 0.0680934 -0.989035 179 129 131
0.717777 -1.39275 3.85263 0.129412 0.0679712 -0.989259 190 141 142
0.737196 -1.38003 3.84993 0.129924 0.0690352 -0.989118 177 128 129
0.75033 -1.37966 3.84971 0.129334 0.0696294 -0.989154 177 128 129
0.763259 -1.37866 3.84611 0.130424 0.0683057 -0.989103 181 132 131
0.802786 -1.37722 3.84321 0.129859 0.0684142 -0.989169 180 129 127
0.816054 -1.37689 3.83956 0.126602 0.0609812 -0.990078 177 127 125
0.829318 -1.37729 3.84656 0.130541 0.068271 -0.98909 175 125 123
0.821739 -1.36305 3.82917 0.124025 0.062347 -0.990319 187 137 134
0.835864 -1.3657 3.84822 0.130542 0.068271 -0.989089 184 133 131
0.849175 -1.3657 3.84998 0.130542 0.068271 -0.989089 181 130 128
0.861995 -1.36449 3.84539 0.130541 0.0682709 -0.98909 180 130 128
0.874779 -1.36326 3.84051 0.130856 0.0682097 -0.989052 179 128 127
0.887438 -1.36174 3.83429 0.129531 0.0690175 -0.989171 179 128 127
0.89997 -1.36007 3.82703 0.119478 0.0635525 -0.990801 181 130 128
0.912304 -1.35794 3.81735 0.119734 0.0636685 -0.990762 182 132 129
0.926281 -1.35721 3.81557 0.119459 0.0637082 -0.990793 182 132 129
0.932145 -1.34638 3.82049 0.119737 0.0636685 -0.990762 176 126 122
0.939378 -1.3574 3.81807 0.117415 0.0655039 -0.99092 184 133 130
0.938878 -1.35795 3.82056 0.119735 0.0636686 -0.990762 184 134 130
0.945935 -1.34584 3.81961 0.117418 0.0655036 -0.99092 177 126 123
0.95925 -1.34582 3.82105 0.11811 0.0627286 -0.991017 177 125 123
0.987403 -1.34469 3.82425 0.119721 0.0647787 -0.990692 181 129 126
1.01521 -1.34289 3.81329 0.117314 0.0639024 -0.991037 177 125 123
1.0288 -1.34267 3.81335 0.12179 0.070385 -0.990057 178 126 123
1.04166 -1.34237 3.81288 0.121719 0.0710629 -0.990017 180 128 126
1.04157 -1.34217 3.81191 0.121699 0.0711091 -0.990017 180 129 126
1.04852 -1.33126 3.81725 0.121751 0.0710709 -0.990013 187 134 132
1.06189 -1.33129 3.8191 0.121751 0.0710708 -0.990013 187 135 133
1.07526 -1.3313 3.82075 0.121751 0.0710708 -0.990013 186 135 132
1.08888 -1.33172 3.82544 0.121839 0.07056 -0.990039 183 132 129
1.10224 -1.33164 3.826 0.121848 0.0705675 -0.990037 184 133 130
1.11748 -1.3297 3.82176 -0.136405 -0.138339 -0.980947 181 130 127
1.13117 -1.3297 3.81986 -0.136404 -0.138339 -0.980947 183 132 129
1.15384 -1.32178 3.80955 -0.297953 0.629769 -0.717366 172 119 116
1.15195 -1.32417 3.82084 -0.25602 0.601598 -0.75666 171 120 118
1.16602 -1.3144 3.8146 0.452915 0.381246 -0.805928 177 125 122
1.17734 -1.31999 3.81556 -0.25602 0.601598 -0.75666 169 117 113
1.18942 -1.32095 3.81498 -0.359821 0.227774 -0.904792 168 117 112
1.21 -1.30985 3.81273 -0.359816 0.227509 -0.90486 179 127 123
1.20891 -1.30839 3.80463 -0.361142 0.231011 -0.903444 180 127 123
1.20223 -1.32095 3.80989 -0.359821 0.227774 -0.904792 169 117 112
1.2228 -1.30985 3.80764 -0.359816 0.227509 -0.90486 178 126 121
1.25051 -1.31457 3.81051 0.33031 -0.175924 -0.927333 168 117 113
1.25676 -1.30136 3.80909 0.33927 -0.178995 -0.923502 176 124 119
1.27137 -1.29964 3.80552 0.339062 -0.178876 -0.923602 176 124 119
1.2634 -1.31262 3.8051 0.339062 -0.178876 -0.923602 168 117 113
1.28691 -1.2982 3.80672 -0.0313281 -0.254835 -0.966477 174 122 117
1.2786 -1.31199 3.81858 -0.0315727 -0.257454 -0.965775 175 124 120
1.30106 -1.29842 3.80731 -0.0313161 -0.254786 -0.96649 169 118 113
1.31204 -1.29877 3.80695 -0.0335553 -0.259694 -0.965108 168 119 113
1.32696 -1.2995 3.81049 -0.0334493 -0.259453 -0.965176 170 119 115
1.34193 -1.29771 3.80113 -0.0192481 -0.258433 -0.965837 172 119 116
1.35563 -1.29692 3.79645 -0.0186307 -0.257321 -0.966146 174 121 118
1.36423 -1.28671 3.8031 0.25779 -0.370815 -0.892211 167 114 111
1.37838 -1.28524 3.79937 0.257248 -0.370781 -0.892382 166 113 110
1.39273 -1.28403 3.79704 0.254572 -0.370196 -0.893391 168 116 113
1.4086 -1.28324 3.79762 0.254508 -0.37016 -0.893424 173 120 118
1.42399 -1.28325 3.80201 0.254508 -0.37016 -0.893425 172 120 117
1.43946 -1.28316 3.80598 0.254406 -0.37005 -0.893499 173 121 117
1.4549 -1.28316 3.81038 0.254405 -0.37005 -0.893499 174 121 119
1.45519 -1.28262 3.80765 0.254378 -0.36996 -0.893544 174 121 119
1.47094 -1.28207 3.80934 0.254508 -0.370077 -0.893459 175 123 120
1.48608 -1.28264 3.81645 0.254378 -0.36996 -0.893544 176 123 121
1.54607 -1.26725 3.80092 -0.32028 0.166398 -0.932595 170 119 114
1.55873 -1.26725 3.79657 -0.32028 0.166398 -0.932595 170 120 115
1.57142 -1.26728 3.79273 -0.320286 0.166415 -0.932589 174 123 118
1.57797 -1.25663 3.79626 -0.319164 0.158443 -0.934361 153 103 97
1.59095 -1.25589 3.78825 -0.322937 0.167571 -0.931467 149 100 94
1.62156 -1.25468 3.78337 0.0497975 0.339946 -0.939126 148 98 93
1.63522 -1.25468 3.7841 0.0497975 0.339946 -0.939126 146 97 92
1.65104 -1.25624 3.79355 -0.162362 0.369085 -0.915104 145 95 90
1.66643 -1.25671 3.79748 0.0468326 0.342568 -0.938325 145 94 91
1.66489 -1.25593 3.7927 0.0498122 0.339265 -0.939371 144 94 91
1.67221 -1.24315 3.78916 0.0490083 0.341137 -0.938735 159 109 105
1.68581 -1.24341 3.79118 0.049238 0.341237 -0.938687 156 104 98
1.69914 -1.2444 3.79679 0.046563 0.341916 -0.938576 152 101 95
1.71045 -1.24388 3.79252 0.0513912 0.343615 -0.937704 151 100 94
1.72511 -1.24152 3.78147 0.0493593 0.342924 -0.938065 151 101 95
1.74186 -1.24533 3.80327 0.0449534 0.339422 -0.93956 150 100 94
1.7536 -1.24387 3.79673 0.0476483 0.342095 -0.938456 148 97 92
1.76719 -1.24519 3.8026 0.241295 0.414343 -0.877552 144 94 89
1.70904 -1.16313 3.39209 -0.455568 -0.181532 -0.871495 128 79 75
1.72112 -1.16315 3.38577 -0.455568 -0.181532 -0.871495 127 77 76
1.72526 -1.15186 3.37507 -0.45585 -0.182859 -0.87107 125 74 77
1.73598 -1.15086 3.36306 -0.455184 -0.182489 -0.871496 120 80 93
1.7471 -1.15021 3.35291 -0.455164 -0.182486 -0.871507 145 128 157
1.74474 -1.11065 3.18318 -0.678868 0.139498 -0.720887 95 78 89
1.75032 -1.08914 3.07468 -0.287195 0.257013 -0.922748 139 98 99
1.75539 -1.084 3.04311 -0.227044 -0.0204028 -0.973671 165 117 112
1.76701 -1.084 3.0404 -0.227043 -0.0204027 -0.973671 171 119 112
1.7871 -1.08298 3.03876 0.0220964 0.310052 -0.950463 175 122 111
1.79972 -1.08298 3.03905 0.0220964 0.310052 -0.950463 177 121 113
1.80585 -1.07248 3.02372 -0.229037 -0.0248736 -0.9731 185 128 120
1.80808 -1.07401 3.03273 -0.227817 -0.0204216 -0.97349 185 128 121
1.8181 -1.07292 3.02354 -0.228643 -0.024972 -0.97319 184 129 121
1.88976 -1.11409 3.25143 0.0837075 -0.229904 -0.969607 189 137 128
1.90267 -1.11409 3.25254 0.0837087 -0.229904 -0.969607 190 136 127
