ply
format ascii 1.0
element vertex 737
property float x
property float y
property float z
property float nx
property float ny
property float nz
property uchar diffuse_red
property uchar diffuse_green
property uchar diffuse_blue
end_header
4.50046 -1.18973 9.46224 0.357879 0.366404 -0.858878 153 107 115
4.55282 -1.18743 9.4575 0.357732 0.373697 -0.855791 158 112 120
4.83306 -1.15405 9.46341 -0.405283 0.340223 -0.848525 146 102 114
4.82024 -1.16418 9.5106 0.133262 0.0706191 -0.988562 152 108 118
4.88517 -1.18363 9.96887 -0.284906 -0.050439 -0.957227 131 85 95
4.9426 -1.1847 10.3591 0.439082 0.78814 -0.431325 131 88 95
4.96616 -1.18469 10.3658 0.43193 0.214046 -0.87614 131 87 95
4.99373 -1.18341 10.3531 0.27512 0.201752 -0.940003 132 87 95
5.10472 -1.15711 10.1429 -0.16056 0.197305 -0.967105 154 108 114
5.13022 -1.15711 10.1387 -0.16056 0.197305 -0.967105 153 107 112
5.1598 -1.15573 10.1151 -0.0514879 0.0746502 -0.99588 152 104 112
5.1891 -1.14802 10.1336 0.128597 -0.219405 -0.967122 147 98 108
5.20161 -1.15263 10.1532 0.239886 0.0593922 -0.968983 146 97 107
5.51954 -1.12384 10.1895 -0.421284 0.33242 -0.843811 122 112 145
5.56501 -1.09863 10.1756 -0.421288 0.332399 -0.843817 74 75 108
5.71174 -1.11059 10.4131 0.223157 0.364198 -0.904191 127 92 106
5.73469 -1.09897 10.4278 -0.0259054 0.540774 -0.840769 145 103 112
5.76169 -1.10929 10.4017 -0.025328 0.540512 -0.840955 145 100 107
1.20539 -1.58847 10.2819 -0.125659 -0.0276906 -0.991687 140 142 182
1.6379 -1.53327 9.94971 -0.453043 0.293394 -0.841826 43 47 68
1.66276 -1.52551 9.91384 -0.482243 0.107026 -0.869475 96 82 101
2.1666 -1.45057 9.93726 -0.102575 0.205194 -0.973331 135 92 105
2.95297 -1.31691 8.85653 0.363679 0.441186 -0.820422 87 72 102
3.1536 -1.2946 8.93792 0.226679 0.4016 -0.887318 146 101 112
3.27247 -1.27757 9.00705 0.230292 0.423992 -0.875898 141 98 111
3.32639 -1.28797 9.14562 0.345695 0.0919223 -0.933834 144 113 133
3.55613 -1.24455 9.0396 0.00609018 -0.297479 -0.954709 122 84 97
3.57443 -1.24641 9.06276 0.00592881 -0.297498 -0.954704 126 88 103
3.6233 -1.26099 9.28137 0.427657 -0.253198 -0.867756 147 106 117
3.64356 -1.26142 9.29533 0.646689 0.0825958 -0.758268 148 105 118
3.66933 -1.25974 9.29362 0.557017 0.336133 -0.759438 147 103 115
3.69337 -1.25974 9.2948 0.0488636 0.0211611 -0.998581 148 104 115
3.70537 -1.2389 9.29583 0.0488642 0.0211612 -0.998581 136 91 100
3.73012 -1.23781 9.31319 0.395646 0.0854317 -0.914421 144 99 108
3.75634 -1.2363 9.30505 0.395905 0.0836167 -0.914477 150 104 113
3.77748 -1.2364 9.31543 0.395907 0.0836281 -0.914474 153 107 116
3.79853 -1.23653 9.32624 0.395933 0.0836538 -0.914461 154 107 116
3.82074 -1.23629 9.33276 0.395935 0.0836564 -0.91446 156 109 118
3.84221 -1.23629 9.34206 0.395935 0.0836565 -0.91446 154 108 116
3.88895 -1.2353 9.35025 0.383302 0.252956 -0.888309 147 100 109
3.91077 -1.2353 9.35967 0.383302 0.252956 -0.888309 143 97 105
4.10291 -1.20262 9.16692 0.470411 0.18356 -0.863145 157 115 125
4.22488 -1.19437 9.19042 -0.105723 0.59708 -0.795184 126 84 98
4.19771 -1.20986 9.64282 0.282863 0.0723169 -0.95643 140 97 108
4.23611 -1.21195 9.67878 0.282592 0.0694558 -0.956722 150 104 115
4.26513 -1.20997 9.66351 0.284302 0.0691113 -0.95624 150 106 115
4.43446 -1.17202 9.4684 0.357441 0.372483 -0.856441 161 115 123
4.56217 -1.16737 9.46361 0.355589 0.367476 -0.859371 157 111 119
4.58413 -1.16757 9.47673 0.355693 0.368381 -0.85894 152 105 113
4.61116 -1.16582 9.46473 0.359728 0.382162 -0.851204 150 103 110
4.59938 -1.14624 9.46037 0.346717 0.380086 -0.857509 153 105 113
4.6202 -1.14571 9.47225 0.360732 0.382859 -0.850465 154 105 114
4.80537 -1.14409 9.52556 0.332895 0.347131 -0.876744 139 93 105
4.84816 -1.13006 9.47519 -0.407012 0.34145 -0.847203 149 110 131
4.94665 -1.10598 9.44405 -0.462826 0.319174 -0.826995 121 85 99
4.90174 -1.15535 9.9465 0.453042 0.258775 -0.853105 148 103 112
4.92377 -1.15535 9.9582 0.453042 0.258775 -0.853105 148 103 113
5.00408 -1.16277 10.3628 0.104933 0.232322 -0.966962 147 102 109
5.1182 -1.13516 10.1452 -0.16056 0.197305 -0.967105 145 97 104
5.14368 -1.13516 10.141 -0.160561 0.197304 -0.967105 140 91 100
5.16916 -1.13516 10.1368 -0.16056 0.197304 -0.967105 139 90 99
5.19765 -1.12835 10.152 0.128722 -0.21992 -0.966988 150 99 110
5.5373 -1.09864 10.1905 -0.421284 0.33242 -0.843811 90 87 121
5.67644 -1.08885 10.3898 0.222259 0.364178 -0.90442 98 95 126
5.70104 -1.08885 10.3958 0.222258 0.364179 -0.90442 124 102 123
5.72095 -1.09059 10.4313 0.223131 0.364177 -0.904205 141 103 114
5.73137 -1.07011 10.4422 0.223135 0.364176 -0.904205 129 88 99
5.75892 -1.08687 10.4349 -0.0259053 0.540774 -0.840769 142 96 104
5.95449 -1.02739 10.0891 0.000829399 0.40547 -0.914108 134 89 94
1.26421 -1.55923 10.2462 -0.125461 -0.027856 -0.991707 98 114 159
1.2944 -1.55938 10.2427 -0.125473 -0.027875 -0.991705 42 57 101
1.32468 -1.55938 10.2389 -0.125474 -0.0278767 -0.991705 28 35 74
2.1467 -1.42798 9.96076 -0.0633987 0.229437 -0.971257 142 98 112
2.46364 -1.39573 9.89551 0.884098 -0.044315 -0.465196 57 69 108
3.16007 -1.27609 8.95758 0.230548 0.421806 -0.876885 158 114 124
3.2614 -1.25487 9.03803 0.160082 -0.0327086 -0.986562 149 105 118
3.28173 -1.25561 9.04955 0.160463 -0.0340194 -0.986455 147 104 116
3.31673 -1.26744 9.13735 0.345739 0.0919625 -0.933813 143 102 119
3.36036 -1.26286 9.10255 -0.0922619 -0.0997899 -0.990722 163 148 173
3.44142 -1.23998 9.0997 -0.038914 0.234786 -0.971268 100 73 97
3.58748 -1.2249 9.05613 -0.0273437 -0.553454 -0.832431 141 102 114
3.68133 -1.2389 9.29465 0.80026 0.448722 -0.397785 132 88 98
3.69782 -1.21714 9.29715 0.567841 0.086846 -0.818544 142 98 106
3.71688 -1.2177 9.31409 0.3951 0.0838021 -0.914808 142 99 107
3.74495 -1.21615 9.30196 0.395904 0.0836167 -0.914477 144 99 109
3.78713 -1.21635 9.32314 0.395932 0.0836537 -0.914461 139 92 102
3.86179 -1.22952 9.56521 0.378119 0.242748 -0.893364 158 112 120
3.88005 -1.23048 9.58791 0.378211 0.241633 -0.893627 158 114 122
3.89333 -1.20923 9.58297 0.377267 0.241834 -0.893972 141 96 104
3.91509 -1.20933 9.59379 0.377759 0.241272 -0.893916 133 88 98
3.90595 -1.22957 9.58447 0.377758 0.241272 -0.893916 158 114 123
3.93789 -1.20918 9.60109 0.377763 0.241274 -0.893914 130 87 96
4.14522 -1.16332 9.18503 0.297176 0.233748 -0.925769 146 126 152
4.20345 -1.15998 9.20579 0.0343829 0.529978 -0.847314 117 83 105
4.17943 -1.19153 9.66297 0.28308 0.0713023 -0.956442 132 88 100
4.20355 -1.19109 9.66437 0.717951 0.468082 -0.515214 134 89 100
4.22903 -1.19021 9.66118 0.282242 0.0699064 -0.956793 135 89 100
4.25144 -1.19026 9.66838 0.282242 0.0699064 -0.956793 136 91 100
4.61275 -1.1261 9.51184 0.122421 0.332473 -0.935134 150 102 110
4.79251 -1.12409 9.52374 0.332914 0.347001 -0.876789 146 99 110
4.84301 -1.10369 9.47122 -0.369631 0.189829 -0.909581 147 102 121
4.86528 -1.10546 9.47893 -0.406093 0.342251 -0.847321 146 122 148
4.85966 -1.13563 9.96786 -0.28503 -0.0501981 -0.957203 119 80 91
4.88345 -1.1364 9.97106 0.453637 0.259429 -0.852591 118 75 86
4.97494 -1.10735 9.94956 0.454197 0.263744 -0.850967 57 29 42
4.99586 -1.10769 9.9665 0.460296 0.263887 -0.847639 95 62 75
5.13167 -1.11321 10.1474 -0.160561 0.197305 -0.967105 145 96 105
5.15886 -1.10788 10.1524 0.117533 0.0897011 -0.98901 149 100 109
5.18411 -1.10776 10.1539 0.128779 -0.226266 -0.965515 156 106 116
5.37837 -1.08256 10.2231 0.084699 -0.0291629 -0.99598 162 110 116
5.52747 -1.07345 10.2054 -0.421284 0.33242 -0.843811 121 116 150
5.55569 -1.07324 10.188 -0.421264 0.332399 -0.843829 87 88 125
5.68683 -1.06842 10.4005 0.222259 0.364178 -0.90442 105 97 124
5.7067 -1.07011 10.4361 0.223133 0.364177 -0.904205 118 90 105
5.72071 -1.04834 10.4242 0.511575 0.246353 -0.823166 132 95 110
5.71874 -1.04904 10.4366 0.222665 0.364225 -0.904301 132 95 110
5.7452 -1.04839 10.4312 -0.0987855 0.340695 -0.93497 144 102 111
5.77022 -1.04871 10.4342 -0.0987747 0.340708 -0.934966 149 105 114
5.78651 -1.04997 10.4371 -0.0264161 0.541146 -0.840513 146 101 111
2.15622 -1.40507 9.97818 0.240281 0.395499 -0.886479 130 87 101
2.70876 -1.29356 9.04317 0.39059 0.0436804 -0.919528 63 68 105
2.72689 -1.29429 9.06091 0.390532 0.042497 -0.919608 76 80 118
2.4993 -1.37467 9.91132 0.147365 0.491239 -0.858468 101 107 144
2.52245 -1.37512 9.92229 0.226044 0.312962 -0.922475 104 101 138
3.22913 -1.23392 9.02445 0.160331 -0.0324889 -0.986529 145 103 115
3.31723 -1.23555 9.05006 0.0126213 0.0828167 -0.996485 143 101 112
3.33228 -1.23813 9.08034 0.013106 0.0833037 -0.996438 155 111 125
3.38561 -1.21844 9.09573 -0.0922627 -0.0997896 -0.990722 152 154 181
3.37299 -1.24063 9.09914 -0.0922623 -0.0997897 -0.990722 163 157 183
3.42911 -1.21889 9.10529 -0.0389142 0.234786 -0.971268 97 81 110
3.70548 -1.19753 9.31101 0.3951 0.0838022 -0.914808 132 88 98
3.72942 -1.19696 9.31256 0.393208 0.0921635 -0.914819 134 89 99
3.84481 -1.21024 9.57847 0.378211 0.241633 -0.893627 152 106 114
3.85086 -1.19071 9.59822 0.378191 0.241629 -0.893637 147 101 108
3.86699 -1.21024 9.58786 0.378212 0.241633 -0.893627 147 101 110
4.13321 -1.1683 9.61142 0.894375 0.206154 -0.39698 121 78 91
4.15461 -1.16856 9.62209 0.286056 0.073892 -0.95536 122 79 90
4.16773 -1.17119 9.66102 0.28308 0.0713023 -0.956442 125 82 93
4.19337 -1.17031 9.6574 0.282933 0.0718757 -0.956443 134 90 101
4.21597 -1.17029 9.66387 0.283068 0.0713165 -0.956445 143 97 108
4.57757 -1.10594 9.50813 0.12783 0.330195 -0.935217 149 102 108
4.5597 -1.1098 9.50741 0.357306 0.373111 -0.856224 149 103 109
4.60429 -1.10505 9.50099 0.122549 0.332243 -0.935198 150 102 109
4.62776 -1.10518 9.50564 0.122557 0.33225 -0.935195 152 104 111
4.75821 -1.10556 9.52739 0.133135 0.0704483 -0.988591 158 109 120
4.74915 -1.08452 9.5141 0.133388 0.0706596 -0.988542 146 98 108
4.85539 -1.08053 9.49374 -0.406093 0.342251 -0.847321 142 107 130
4.88557 -1.0797 9.47038 -0.406107 0.342115 -0.847369 148 140 170
4.87249 -1.11186 9.96282 -0.285029 -0.0501982 -0.957204 94 65 76
4.89544 -1.10181 9.94809 0.415632 -0.595639 -0.687361 59 36 49
5.01131 -1.10395 10.0703 0.215876 -0.689733 -0.691133 127 85 93
5.10177 -1.07935 10.0079 -0.213427 0.811368 -0.544179 150 104 112
5.11727 -1.09038 10.1622 -0.280952 0.0831758 -0.956111 144 95 105
5.13896 -1.08923 10.1842 0.127902 -0.227656 -0.965305 140 90 99
5.16389 -1.08923 10.1875 0.127892 -0.227651 -0.965308 138 89 99
5.57271 -1.04831 10.1933 -0.421264 0.332399 -0.843829 81 87 126
5.7049 -1.02841 10.4388 0.521999 0.345574 -0.779805 119 93 114
5.72977 -1.02834 10.4436 -0.0947341 0.378556 -0.920718 132 91 104
1.34816 -1.50185 10.1846 -0.125543 -0.0244657 -0.991787 31 40 77
2.26331 -1.38423 9.97032 -0.12992 0.102729 -0.986188 74 85 125
2.71917 -1.27333 9.04856 0.390591 0.0436802 -0.919528 89 88 121
2.76956 -1.2716 9.04937 0.389803 0.0520158 -0.919428 108 103 134
2.49295 -1.35175 9.89676 -0.519899 0.369524 -0.770167 111 103 135
2.51782 -1.35175 9.90286 0.226036 0.312547 -0.922617 120 105 135
3.19788 -1.21582 8.96984 0.553564 0.304695 -0.775067 141 97 109
3.19469 -1.21335 9.0178 0.167921 -0.0255819 -0.985468 136 92 104
3.21568 -1.21391 9.02753 0.160086 -0.0327039 -0.986561 142 100 111
3.2384 -1.21405 9.03277 0.160055 -0.0327163 -0.986566 151 109 120
3.3289 -1.2147 9.05348 0.012555 0.0829136 -0.996478 162 118 130
3.34442 -1.21713 9.08226 0.0131058 0.0833036 -0.996438 165 123 139
3.36874 -1.21713 9.08257 0.0131058 0.0833037 -0.996438 163 142 163
3.44183 -1.1978 9.10988 -0.0389145 0.234786 -0.971268 101 76 99
3.81389 -1.17075 9.59401 0.381406 0.246743 -0.890869 156 109 117
3.8361 -1.17075 9.60353 0.381406 0.246744 -0.890869 157 110 119
3.83176 -1.19 9.57842 0.37821 0.241633 -0.893628 139 93 101
3.86195 -1.16996 9.60086 0.382084 0.248032 -0.89022 158 112 120
3.88417 -1.16996 9.61039 0.382084 0.248032 -0.89022 155 110 118
3.90935 -1.16927 9.60972 0.285521 -0.00021971 -0.958373 144 100 108
4.00272 -1.16823 9.63219 0.384167 0.245365 -0.890063 138 98 116
4.16267 -1.14897 9.63704 0.285471 0.0688623 -0.95591 134 91 101
4.1786 -1.15087 9.66575 0.28308 0.0713022 -0.956442 142 98 108
4.20319 -1.15031 9.66564 0.283061 0.0713208 -0.956447 148 102 112
4.46854 -1.10998 9.47149 0.35744 0.373715 -0.855906 158 113 119
4.5031 -1.08915 9.47996 0.357476 0.373474 -0.855995 148 103 111
4.54177 -1.08594 9.50642 0.127781 0.334029 -0.933861 161 114 120
4.56736 -1.08544 9.50361 0.125474 0.333414 -0.934394 160 112 118
4.59131 -1.0854 9.50678 0.122559 0.332243 -0.935197 161 113 118
4.59142 -1.08539 9.50634 0.123243 0.332283 -0.935093 161 113 118
4.61528 -1.0854 9.50959 0.123241 0.332282 -0.935094 158 110 118
4.73594 -1.06503 9.52161 0.133696 0.071117 -0.988467 154 106 114
4.76341 -1.06758 9.56147 0.120877 0.331551 -0.935662 150 102 111
4.80736 -1.06878 9.5827 0.120956 0.331528 -0.935659 154 105 120
4.87315 -1.05556 9.49535 -0.406093 0.34225 -0.847321 141 122 152
4.85639 -1.08829 9.97523 -0.284791 -0.0461024 -0.95748 53 38 55
4.94819 -1.06417 9.94623 -0.284786 -0.0461039 -0.957482 77 71 95
4.96615 -1.06652 9.97481 0.453881 0.26301 -0.851362 81 75 99
5.02448 -1.06893 10.0467 0.616104 -0.641834 -0.45658 140 96 109
5.01261 -1.09258 10.3715 0.0745107 -0.0884538 -0.99329 140 93 102
5.07996 -1.06656 10.1697 -0.137828 0.359354 -0.922967 143 96 105
5.10521 -1.0668 10.1659 -0.280961 0.083174 -0.956108 148 99 109
5.12716 -1.06804 10.1776 0.127909 -0.22766 -0.965303 148 99 107
5.15207 -1.06804 10.1809 0.127902 -0.227656 -0.965305 146 97 106
5.17701 -1.06802 10.1842 0.127887 -0.227649 -0.965309 148 99 109
5.6997 -1.00431 10.4075 -0.0947954 0.377517 -0.921138 103 87 111
5.71752 -1.00719 10.4536 -0.0947336 0.378556 -0.920718 125 88 103
5.74577 -1.00633 10.4531 -0.098591 0.340372 -0.935108 132 90 99
5.84598 -1.00757 10.4633 -0.0976927 0.341195 -0.934902 143 98 105
1.58207 -1.41706 9.96919 -0.262723 0.318968 -0.910624 35 38 62
2.76318 -1.25026 9.03423 0.394429 0.0750013 -0.915861 116 92 118
2.52131 -1.3079 9.89692 0.224598 0.314404 -0.922337 126 87 106
2.50374 -1.33068 9.90654 0.226034 0.312547 -0.922618 130 99 124
3.18064 -1.19355 9.02175 0.161672 -0.0320247 -0.986325 150 106 117
3.27342 -1.19364 9.03775 0.160055 -0.0327164 -0.986566 158 115 127
3.29925 -1.193 9.03473 0.160573 -0.0330526 -0.98647 149 109 121
3.33509 -1.19535 9.0746 0.0123508 0.0830071 -0.996472 143 100 111
3.35656 -1.19614 9.08417 0.0131057 0.0833036 -0.996438 141 107 123
3.37321 -1.17391 9.07137 0.0122836 0.0828158 -0.996489 149 127 144
3.40848 -1.17597 9.10411 0.0399024 0.256608 -0.965692 129 130 167
3.43299 -1.17596 9.10506 -0.0387239 0.233885 -0.971493 96 80 111
3.76888 -1.1571 9.34111 0.390268 0.0861576 -0.916661 137 93 100
3.79586 -1.15578 9.3328 0.395623 0.0839835 -0.914565 137 92 99
3.80057 -1.1505 9.59458 0.381405 0.246745 -0.890869 147 101 109
3.82297 -1.15046 9.60351 0.381407 0.246743 -0.890869 143 96 105
3.84477 -1.15057 9.61451 0.381435 0.246738 -0.890858 141 94 103
3.87101 -1.14968 9.6104 0.382085 0.248032 -0.89022 139 94 102
3.89512 -1.14926 9.61346 0.242802 0.200966 -0.949031 138 94 102
3.9602 -1.1395 9.47524 0.821173 -0.355381 -0.446519 136 92 100
3.98858 -1.14823 9.63579 0.384189 0.245372 -0.890051 152 109 124
4.13289 -1.12764 9.61235 0.286176 0.073869 -0.955325 127 81 92
4.15101 -1.12867 9.63502 0.3352 0.0974113 -0.937098 126 82 93
4.19085 -1.13016 9.66584 0.28307 0.0713178 -0.956444 133 88 98
4.19943 -1.11047 9.6783 0.28298 0.0721463 -0.956409 145 101 111
4.2243 -1.10982 9.67725 0.28307 0.0713179 -0.956444 147 101 111
4.24688 -1.10982 9.68393 0.28307 0.0713179 -0.956444 150 106 114
4.27116 -1.10926 9.68322 0.282899 0.0712931 -0.956497 154 109 118
4.5122 -1.06398 9.47877 0.122281 0.332658 -0.935086 158 112 119
4.55834 -1.06459 9.49489 0.124076 0.3346 -0.934156 153 106 112
4.60212 -1.06577 9.51617 0.122559 0.332238 -0.935199 145 98 104
4.60246 -1.06569 9.5148 0.123243 0.332283 -0.935093 145 98 104
4.67677 -1.04849 9.56486 0.120822 0.331659 -0.935631 157 109 116
4.70074 -1.04847 9.56798 0.120822 0.331659 -0.935631 156 108 115
4.72684 -1.04782 9.56288 0.120964 0.331685 -0.935603 153 105 113
4.86325 -1.03061 9.51017 -0.406093 0.34225 -0.847321 136 106 132
4.89099 -1.06555 9.98262 -0.33837 -0.104403 -0.935204 73 67 91
4.9348 -1.04055 9.94909 -0.284786 -0.0461039 -0.957482 95 94 122
4.95832 -1.04158 9.95626 -0.283748 -0.0396163 -0.95808 87 88 116
4.97452 -1.04559 9.98574 0.45388 0.26301 -0.851363 91 88 114
4.99508 -1.04603 10.0045 0.453901 0.263003 -0.851354 118 103 124
5.01724 -1.04603 10.0163 0.4539 0.263003 -0.851354 119 82 100
4.99558 -1.07318 10.3972 0.0735973 -0.0889408 -0.993314 136 88 99
5.11878 -1.04335 10.164 -0.28096 0.0831735 -0.956109 152 104 112
5.14026 -1.04685 10.1744 0.127902 -0.227656 -0.965305 150 102 109
5.16382 -1.04725 10.1842 0.126577 -0.227004 -0.965633 147 99 108
5.47267 -0.996686 10.2499 -0.421552 0.332504 -0.843644 161 117 130
5.47263 -0.996719 10.2502 -0.421399 0.332456 -0.843739 161 117 130
5.60328 -0.997305 10.2759 0.412306 0.45808 -0.787507 92 99 140
5.59949 -0.996829 10.2851 0.269012 0.0264769 -0.962773 94 101 141
5.63635 -0.99442 10.2396 0.541695 0.447017 -0.711858 91 98 137
5.62265 -0.996829 10.2915 0.269014 0.0264772 -0.962772 91 98 137
5.64321 -0.980542 10.385 0.410749 -0.171415 -0.89549 72 78 115
5.68906 -0.981925 10.4207 0.347868 0.2436 -0.905344 93 88 116
5.73235 -0.985488 10.4701 -0.0986054 0.340409 -0.935093 136 94 105
5.84854 -0.964815 10.4729 -0.0979975 0.341919 -0.934606 135 89 96
5.8485 -0.964817 10.4732 -0.0967734 0.342649 -0.934466 135 89 96
5.87451 -0.964815 10.4702 -0.0979973 0.341919 -0.934606 138 91 96
5.92837 -0.945964 10.1462 -0.131041 0.303026 -0.94393 141 95 99
5.95356 -0.945963 10.1427 -0.131041 0.303026 -0.94393 142 95 99
5.97875 -0.945961 10.1392 -0.131041 0.303026 -0.94393 143 96 101
1.54962 -1.41706 9.97856 -0.262723 0.318967 -0.910624 32 34 59
1.61952 -1.38572 9.93105 -0.266329 0.287796 -0.919914 42 50 79
1.69878 -1.38923 9.94274 -0.267315 0.313154 -0.911305 83 74 104
2.7115 -1.22939 9.0056 0.359462 0.262304 -0.895536 100 75 100
2.7335 -1.22939 9.01441 0.359461 0.262304 -0.895536 110 81 103
2.49467 -1.28381 9.85945 0.224503 0.314369 -0.922372 122 80 96
3.25875 -1.17401 9.04348 0.159951 -0.0327757 -0.986581 139 96 106
3.25598 -1.17443 9.05215 0.160653 -0.0325718 -0.986473 140 96 106
3.28516 -1.17325 9.03898 0.160056 -0.0327161 -0.986566 141 100 110
3.31017 -1.17283 9.03807 0.160714 -0.0329611 -0.98645 142 101 113
3.32992 -1.15473 9.09471 0.0123239 0.0828555 -0.996485 149 108 120
3.35425 -1.15473 9.09501 0.0123237 0.0828555 -0.996485 144 109 123
3.37858 -1.15473 9.09531 0.0123237 0.0828555 -0.996485 155 143 165
3.42143 -1.15527 9.10732 0.0396082 0.257829 -0.965378 112 106 142
3.41879 -1.15833 9.26501 -0.565787 0.0450126 -0.823322 122 82 96
3.69265 -1.13709 9.3114 0.395083 0.0838399 -0.914812 130 84 95
3.71409 -1.13708 9.32059 0.395083 0.0838419 -0.914811 135 90 100
3.73617 -1.13696 9.32995 0.39659 0.0850137 -0.914051 141 95 105
3.75764 -1.13696 9.33926 0.39659 0.0850136 -0.914051 144 99 108
3.7876 -1.13018 9.59399 0.381407 0.246743 -0.890869 140 93 102
3.80982 -1.13018 9.60351 0.381407 0.246743 -0.890868 144 97 105
3.83148 -1.1303 9.61497 0.381433 0.246738 -0.890858 150 103 112
3.85371 -1.1303 9.62449 0.381433 0.246739 -0.890859 154 108 117
3.87596 -1.1303 9.63401 0.381432 0.246739 -0.890859 154 109 118
4.12804 -1.11149 9.67051 0.826824 -0.198445 -0.526291 127 79 90
4.16517 -1.09015 9.66969 0.282979 0.0721462 -0.956409 139 95 103
4.1652 -1.09014 9.6696 0.282986 0.0721934 -0.956403 139 95 103
4.20676 -1.0911 9.695 0.17068 0.42437 -0.889257 139 96 104
4.23158 -1.0911 9.69977 -0.163979 -0.309896 -0.936523 140 97 105
4.46428 -1.04375 9.44416 0.421906 0.297641 -0.856391 155 108 118
4.45595 -1.06383 9.434 0.421906 0.297642 -0.85639 160 113 121
4.47652 -1.06418 9.44882 0.690212 0.259935 -0.675308 164 117 124
4.88233 -1.04055 9.96465 -0.284786 -0.0461033 -0.957482 93 91 120
4.90859 -1.04055 9.95685 -0.284786 -0.0461034 -0.957482 97 94 123
4.91683 -1.01811 9.97179 -0.282422 -0.0446227 -0.958252 82 82 113
4.94757 -1.01693 9.94415 -0.284786 -0.0461039 -0.957482 80 81 111
4.96439 -1.01933 9.97749 -0.281728 -0.0440804 -0.958481 81 84 114
4.98421 -1.02102 9.99796 -0.28515 -0.0477048 -0.957295 102 99 125
4.98119 -1.04793 10.3968 -0.336459 -0.129789 -0.932711 138 90 102
5.0087 -1.04793 10.3869 -0.336459 -0.129789 -0.932711 144 95 106
5.17024 -1.02355 10.2199 -0.142304 0.173469 -0.974504 140 92 101
5.22904 -1.00307 10.2422 -0.141053 0.174791 -0.97445 141 93 101
5.57479 -0.971076 10.2042 0.670729 -0.154041 -0.72553 94 98 137
5.57115 -0.97231 10.2234 -0.313429 0.550612 -0.773685 94 98 137
5.60994 -0.976328 10.2943 0.268085 0.0260911 -0.963042 69 75 114
5.61038 -0.976195 10.2919 0.41231 0.458078 -0.787506 69 75 114
5.62138 -0.955511 10.298 0.268086 0.026091 -0.963042 67 72 110
5.65911 -0.958208 10.3639 0.267834 0.0261371 -0.96311 67 71 109
5.67419 -0.961335 10.4286 0.348542 0.242826 -0.905292 80 83 113
5.74883 -0.950868 10.4714 0.089263 0.57811 -0.811062 142 99 108
5.74616 -0.9642 10.4764 -0.0986053 0.340409 -0.935093 133 91 100
5.77105 -0.964566 10.4805 0.0892509 0.578143 -0.81104 140 96 103
5.83576 -0.943571 10.4868 -0.136011 0.325904 -0.935568 138 93 99
5.86229 -0.943568 10.4796 -0.0967732 0.342649 -0.934466 136 90 95
5.86084 -0.943895 10.4888 -0.135973 0.325837 -0.935597 136 90 95
5.86236 -0.942845 10.4817 -0.0573798 0.140378 -0.988434 135 89 94
5.94189 -0.924955 10.1511 -0.131041 0.303026 -0.94393 135 89 94
5.96651 -0.925165 10.1511 -0.13103 0.303128 -0.943899 134 87 92
6.00202 -0.905295 10.1733 -0.132374 0.304356 -0.943316 142 94 101
1.55897 -1.38487 9.94065 -0.574744 -0.0888278 -0.813498 37 41 71
1.58731 -1.38572 9.94037 -0.266329 0.287796 -0.919914 39 45 73
3.27049 -1.1536 9.0447 0.159951 -0.0327755 -0.986581 152 109 119
3.26773 -1.15402 9.05339 0.160653 -0.0325717 -0.986473 152 109 119
3.29097 -1.15034 9.05654 0.0298873 0.291317 -0.95616 147 105 116
3.3664 -1.13373 9.09691 0.0123237 0.0828555 -0.996485 144 118 136
3.39073 -1.13373 9.0972 0.0123237 0.0828555 -0.996485 155 151 180
3.38828 -1.13422 9.10438 0.021911 0.0951583 -0.995221 155 151 180
3.78112 -1.10152 9.47846 0.737924 0.481688 -0.4727 147 101 108
3.79872 -1.10946 9.59665 0.381656 0.246505 -0.890828 155 108 117
3.83867 -1.11045 9.62805 0.747478 -0.027402 -0.663721 154 107 116
3.88978 -1.10896 9.62733 -0.33137 -0.290502 -0.897665 140 95 103
4.13941 -1.06755 9.63296 0.821306 0.145295 -0.551675 119 74 84
4.15505 -1.0694 9.66249 0.281378 0.0713824 -0.956938 123 79 86
4.15347 -1.06982 9.66775 0.283049 0.0721533 -0.956388 123 79 86
4.15147 -1.07043 9.6762 0.283091 0.0705386 -0.956496 123 79 86
4.1926 -1.07128 9.70174 0.536685 -0.28958 -0.792535 131 87 94
4.21742 -1.07128 9.70651 0.698492 0.523796 -0.487593 141 98 106
4.59684 -1.0272 9.53924 0.121244 0.331669 -0.935572 154 107 114
4.6159 -1.02877 9.564 0.120823 0.331659 -0.93563 149 101 109
4.61593 -1.02874 9.564 0.120822 0.331659 -0.935631 149 101 109
4.89552 -1.01674 9.95807 -0.284798 -0.0461189 -0.957477 83 82 113
4.92962 -0.994478 9.96696 -0.282422 -0.0446225 -0.958252 69 70 101
4.95471 -0.994767 9.96405 -0.28162 -0.0442077 -0.958507 69 71 102
4.98083 -0.994767 9.95637 -0.28162 -0.0442078 -0.958507 75 75 106
4.93877 -1.02281 10.4087 -0.336459 -0.129789 -0.932711 120 84 102
4.96632 -1.0228 10.3986 -0.336459 -0.129789 -0.932711 130 84 96
5.08486 -0.99353 10.0749 0.652017 0.182021 -0.736031 145 100 107
5.10085 -0.995212 10.1169 0.463588 0.35943 -0.809874 147 102 109
5.2199 -0.980371 10.2323 -0.141593 0.17516 -0.974305 141 93 101
5.59822 -0.955511 10.2916 0.268089 0.0260891 -0.963041 68 74 111
5.60965 -0.934692 10.2953 0.268092 0.0260878 -0.96304 77 82 121
5.62931 -0.935743 10.3231 0.267579 0.026185 -0.96318 77 82 121
5.65009 -0.936472 10.3443 0.267903 0.0261236 -0.963092 75 81 120
5.67172 -0.93685 10.3659 0.351401 0.239812 -0.90499 79 86 123
5.67059 -0.937303 10.3677 0.267836 0.0261362 -0.96311 79 85 122
5.69022 -0.938422 10.3965 0.267283 0.0261647 -0.963263 87 88 121
5.71518 -0.937897 10.3934 0.509956 0.3926 -0.765383 113 95 119
5.77109 -0.941276 10.4968 0.0892511 0.578143 -0.81104 150 104 110
5.80012 -0.92167 10.4908 -0.0573802 0.14038 -0.988434 137 91 98
5.82532 -0.921548 10.4868 -0.0573807 0.140378 -0.988434 137 92 97
5.84984 -0.922038 10.4922 -0.136011 0.325904 -0.935568 134 89 93
5.85014 -0.921548 10.4854 -0.0573804 0.140378 -0.988434 134 89 94
5.87587 -0.922038 10.4884 -0.136011 0.325903 -0.935568 133 88 92
5.97679 -0.905296 10.1769 -0.132374 0.304356 -0.943316 140 92 98
3.29924 -1.13074 9.07597 0.0302272 0.292311 -0.955846 134 92 103
3.37718 -1.11305 9.10321 0.0219009 0.0951782 -0.995219 155 138 161
3.39645 -1.11423 9.11726 0.0396076 0.25783 -0.965378 142 144 177
3.42098 -1.11423 9.11827 0.0396075 0.25783 -0.965378 118 111 148
3.41987 -1.11103 9.12447 0.307078 0.0869603 -0.947703 118 110 147
3.44184 -1.11103 9.13158 0.307078 0.0869603 -0.947703 107 79 108
3.73569 -1.09615 9.32881 0.385801 0.213458 -0.897548 132 87 95
3.73494 -1.07818 9.36957 0.385285 0.213002 -0.897878 147 102 109
3.64403 -1.1169 9.78215 -0.214856 0.177144 -0.960446 142 95 103
3.78559 -1.08917 9.59664 0.381654 0.246505 -0.890828 141 94 102
3.83179 -1.08881 9.60974 0.357105 -0.552868 -0.75287 132 86 93
3.84927 -1.09002 9.63357 0.807559 0.11479 -0.578508 133 86 95
3.91067 -1.06764 9.63657 0.385479 0.242225 -0.890356 148 101 110
4.12754 -1.04709 9.62461 0.304004 0.0742699 -0.949771 119 76 87
4.14991 -1.04709 9.63175 0.304004 0.0742698 -0.949771 130 86 93
4.23062 -1.03796 9.71933 0.166762 0.849847 -0.49995 139 95 103
4.26524 -1.05329 9.70481 0.166762 0.849847 -0.49995 156 111 119
4.26775 -1.03219 9.73096 0.16678 0.849832 -0.49997 131 88 98
4.2725 -1.03136 9.72716 0.127878 0.88846 -0.44078 132 89 99
4.29203 -1.04756 9.84653 0.388716 0.484194 -0.783873 138 91 101
4.46896 -1.00681 9.50705 0.422712 0.298866 -0.855566 155 108 116
4.4913 -1.00652 9.52002 0.437688 0.696624 -0.568458 151 103 111
4.5795 -1.00883 9.56452 0.517238 0.713549 -0.47256 141 93 101
4.63812 -0.989215 9.58089 0.120822 0.331659 -0.935631 158 109 119
4.69074 -0.987684 9.56417 0.119507 0.331856 -0.935729 153 104 112
4.89136 -0.943796 9.20747 -0.271491 -0.0310783 -0.961939 141 97 109
4.85139 -0.961266 9.48984 0.0274846 0.405786 -0.913555 149 104 118
4.88212 -0.993064 9.96083 -0.284798 -0.0461191 -0.957478 72 73 103
4.91624 -0.970876 9.96982 -0.282422 -0.0446226 -0.958252 67 68 99
4.90833 -0.993069 9.95311 -0.284798 -0.046119 -0.957478 72 71 102
4.94498 -0.970215 9.95079 -0.28253 -0.0445278 -0.958225 70 71 102
4.96482 -0.971894 9.97096 -0.0981995 0.0426537 -0.994252 70 73 104
4.96717 -0.97133 9.96064 -0.281472 -0.0441016 -0.958556 70 73 104
4.92315 -0.997813 10.4139 -0.336529 -0.130064 -0.932647 128 108 133
4.95144 -0.997665 10.4005 -0.336459 -0.129789 -0.932711 142 102 116
5.59991 -0.913283 10.2816 0.146289 -0.437944 -0.88702 92 99 138
5.6211 -0.91387 10.299 0.268092 0.0260877 -0.96304 92 98 136
5.64076 -0.914891 10.3268 0.267576 0.0261855 -0.963181 86 93 131
5.68146 -0.915893 10.3752 0.351399 0.239813 -0.904991 91 99 136
5.67896 -0.917321 10.3907 0.267351 0.0262281 -0.963242 91 99 135
5.70267 -0.916525 10.3961 0.347158 0.235029 -0.907878 97 94 125
5.70228 -0.917315 10.3971 0.267349 0.026229 -0.963243 96 94 125
5.72596 -0.916525 10.405 0.347154 0.23503 -0.907879 119 92 112
5.75212 -0.903209 10.4861 0.0886431 0.577299 -0.811707 140 96 104
5.78976 -0.899755 10.4833 0.128384 0.382249 -0.915098 151 104 111
5.81309 -0.900237 10.4906 -0.0573801 0.140375 -0.988434 150 105 112
5.83844 -0.900325 10.4981 -0.136011 0.325906 -0.935568 146 102 107
5.83791 -0.900236 10.4891 -0.0573804 0.140378 -0.988434 147 102 107
5.86533 -0.900051 10.489 -0.100852 -0.473893 -0.874788 141 96 101
5.86708 -0.899497 10.4784 -0.24237 -0.470939 -0.848217 141 96 101
5.90183 -0.896507 10.424 -0.130018 0.313111 -0.940775 138 92 97
5.92756 -0.896507 10.4205 -0.130019 0.313111 -0.940775 138 91 97
3.21756 -1.10855 9.06052 0.03255 0.292116 -0.955829 151 105 117
3.38927 -1.09214 9.10547 0.0219009 0.0951782 -0.995219 155 149 177
3.43032 -1.09111 9.12968 0.307078 0.0869601 -0.947703 101 85 119
3.58653 -1.0905 9.83834 -0.210671 0.0159097 -0.977428 138 92 100
3.64688 -1.09614 9.8266 -0.100268 -0.00631845 -0.99494 134 88 98
3.77356 -1.06864 9.59273 0.381697 0.246508 -0.890809 141 95 102
3.83756 -1.0696 9.63118 0.439756 0.665724 -0.602849 149 102 110
3.85791 -1.06915 9.66839 0.439668 0.665854 -0.602769 155 107 115
3.98805 -1.04697 9.66969 0.384381 0.244507 -0.890207 148 104 115
4.11926 -1.02595 9.6114 0.304494 0.071311 -0.949841 112 74 89
4.11589 -1.02681 9.62247 0.304004 0.0742699 -0.949771 112 74 89
4.13827 -1.0268 9.62961 0.304004 0.0742698 -0.949771 124 80 90
4.15949 -1.02722 9.64321 0.281413 0.0716738 -0.956906 125 81 91
4.18202 -1.02722 9.64983 0.281414 0.0716739 -0.956906 125 83 90
4.23062 -1.01731 9.75443 0.166762 0.849847 -0.49995 126 90 101
4.23322 -1.01666 9.74539 0.127877 0.88846 -0.44078 126 90 100
4.28432 -1.03197 9.92976 0.366666 0.473478 -0.800859 151 105 116
4.52658 -0.986702 9.53096 0.122133 0.332079 -0.935311 145 99 105
4.6279 -0.96854 9.57308 0.120833 0.331521 -0.935678 139 92 99
4.65434 -0.967787 9.56417 0.120696 0.331449 -0.935721 138 91 98
4.67835 -0.967777 9.56711 0.120696 0.331449 -0.935721 135 88 95
4.86419 -0.941335 9.49665 0.027489 0.405784 -0.913555 136 94 110
4.90235 -0.921617 9.20875 -0.271469 -0.0307296 -0.961957 140 94 106
4.88856 -0.941502 9.49971 0.0274842 0.405786 -0.913555 146 130 158
4.9641 -0.972517 10.3924 -0.336459 -0.129789 -0.932711 129 86 98
5.05228 -0.964232 10.3463 0.418026 0.209723 -0.883895 134 87 96
5.16041 -0.942081 10.3604 -0.0387494 -0.262921 -0.964039 140 92 100
5.68605 -0.899447 10.4718 0.10026 0.401382 -0.910407 90 91 126
5.71128 -0.899677 10.4936 -0.0986176 0.340259 -0.935146 117 93 114
5.72142 -0.879571 10.4983 0.0994374 0.401878 -0.910278 134 103 121
5.77445 -0.87911 10.4954 0.09906 0.402538 -0.910028 144 100 108
5.80021 -0.879109 10.4982 0.0990594 0.402538 -0.910028 141 96 103
5.82387 -0.879473 10.5039 -0.0573474 0.140181 -0.988464 134 90 95
5.84802 -0.880173 10.5313 -0.314103 0.41613 -0.853332 129 85 89
5.88989 -0.875132 10.4328 -0.130019 0.313111 -0.940775 128 83 89
3.30369 -1.07249 9.10997 0.307103 0.0870861 -0.947684 143 100 113
3.37868 -1.07084 9.10295 0.0217779 0.0951238 -0.995227 143 122 145
3.4188 -1.07118 9.12777 0.307079 0.08696 -0.947703 125 124 159
3.44911 -1.05173 9.14591 0.30701 0.0867977 -0.94774 107 80 105
3.55671 -1.09127 9.853 -0.214025 0.00869766 -0.976789 138 92 101
3.57221 -1.06637 9.84391 -0.210708 0.0126953 -0.977467 139 93 102
3.57257 -1.06637 9.845 -0.203055 0.0170948 -0.979018 140 93 102
3.5965 -1.06719 9.84943 -0.212551 0.010331 -0.977095 145 98 107
3.63408 -1.07214 9.83385 -0.215912 0.175141 -0.960577 140 94 105
3.65827 -1.06471 9.84757 0.242633 0.607179 -0.756613 148 102 110
3.68572 -1.0564 9.84917 0.242539 0.607153 -0.756664 150 104 110
3.75563 -1.05726 9.88275 0.223339 0.430191 -0.874674 136 88 95
3.78013 -1.0574 9.89118 0.223396 0.43013 -0.87469 136 88 95
3.88576 -1.02665 9.63154 0.608361 0.465237 -0.643002 150 101 110
4.12999 -1.00567 9.61637 0.304494 0.0713111 -0.949841 105 69 81
4.1885 -1.00176 9.68668 0.35028 0.647533 -0.67676 113 80 90
4.21198 -0.99741 9.7067 0.349857 0.647024 -0.677466 88 59 73
4.23323 -0.996228 9.78657 0.127877 0.88846 -0.44078 60 38 54
4.22689 -0.997872 9.80907 0.127632 0.888083 -0.441609 60 38 54
4.29652 -1.01025 9.92456 0.367048 0.473178 -0.800861 141 97 108
4.32323 -1.00972 9.92604 0.36661 0.473464 -0.800893 147 100 111
4.43987 -0.969457 9.79028 0.201608 0.842565 -0.499437 142 95 103
4.63902 -0.948749 9.58154 0.120833 0.331521 -0.935678 144 95 104
4.68776 -0.94856 9.584 0.120672 0.33152 -0.935699 146 98 107
4.73723 -0.931354 9.63432 0.122117 0.330949 -0.935714 136 88 96
4.8514 -0.921565 9.50507 0.0274808 0.405788 -0.913554 154 106 117
4.87638 -0.921565 9.50582 0.0274809 0.405788 -0.913554 151 115 136
4.95242 -0.921238 9.50348 0.771646 0.503967 -0.388045 67 70 104
4.9666 -0.92429 9.95865 -0.281472 -0.0441019 -0.958556 75 78 111
4.94813 -0.947616 10.3995 -0.336456 -0.129789 -0.932712 122 92 109
4.97565 -0.947616 10.3896 -0.336456 -0.129793 -0.932712 130 85 97
4.99678 -0.949879 10.4171 -0.311573 -0.0509717 -0.948854 133 87 96
5.07161 -0.94562 10.4124 0.221758 -0.246284 -0.943487 136 88 97
5.42913 -0.898979 10.3553 0.231262 0.24852 -0.940615 161 113 119
5.70753 -0.858984 10.5059 0.0994374 0.401878 -0.910278 115 103 128
5.69794 -0.878894 10.4822 0.100259 0.401382 -0.910407 105 99 129
5.73334 -0.858984 10.5087 0.0994368 0.401878 -0.910278 126 90 104
5.75914 -0.858984 10.5115 0.0994364 0.401879 -0.910278 138 94 104
5.81338 -0.857512 10.5234 -0.135848 0.324956 -0.935921 140 97 102
5.80949 -0.859354 10.5245 0.0992558 0.402447 -0.910047 139 96 102
5.89256 -0.857198 10.5064 -0.136241 0.319035 -0.937899 143 96 104
5.91909 -0.857018 10.4995 -0.136364 0.319207 -0.937823 142 96 103
2.56368 -1.13025 8.96482 0.390431 0.109095 -0.914146 147 105 117
2.5796 -1.13119 8.98789 0.390754 0.0992552 -0.915128 145 109 126
2.60107 -1.13119 8.99706 0.390755 0.0992549 -0.915128 130 109 133
2.64859 -1.11199 9.03582 0.389979 0.0957361 -0.915834 101 96 130
2.6485 -1.11194 9.03638 0.389761 0.0955579 -0.915945 101 96 130
3.29214 -1.05252 9.10806 0.307106 0.0870864 -0.947682 154 110 122
3.36513 -1.05085 9.10676 0.30698 0.086938 -0.947737 139 106 124
3.3871 -1.05085 9.11388 0.306979 0.0869379 -0.947737 150 139 165
3.40728 -1.05125 9.12587 0.307079 0.08696 -0.947703 135 139 172
3.42713 -1.05173 9.13879 0.307012 0.0867974 -0.94774 113 105 141
3.41822 -1.03121 9.12973 0.307094 0.0869673 -0.947697 130 130 167
3.43786 -1.03174 9.14317 0.306964 0.0867855 -0.947756 94 78 113
3.45567 -1.0325 9.16287 0.30696 0.0868246 -0.947754 106 75 95
3.54299 -1.06686 9.85622 -0.214025 0.00869767 -0.976789 136 90 98
3.54933 -1.06521 9.83341 -0.209313 0.0126556 -0.977767 136 90 98
3.5843 -1.04246 9.8472 -0.214028 0.00869451 -0.976789 145 98 107
3.63567 -1.04929 9.846 0.242401 0.607194 -0.756675 146 100 110
3.66166 -1.04136 9.85299 0.242544 0.607148 -0.756666 135 89 96
3.70907 -1.04918 9.86614 0.242292 0.607334 -0.756598 137 90 96
3.68458 -1.03418 9.87129 0.24229 0.607334 -0.756598 135 88 95
3.73139 -1.04222 9.88706 0.241901 0.606763 -0.757181 136 89 95
3.75512 -1.03488 9.90273 0.241885 0.606374 -0.757498 150 102 110
3.75741 -1.03431 9.89451 0.242288 0.607334 -0.756598 150 102 110
3.78167 -1.02685 9.90827 0.242288 0.607334 -0.756599 155 105 115
3.80595 -1.01938 9.92205 0.307836 0.580303 -0.75398 149 99 109
3.95912 -1.00672 9.67852 0.383877 0.245204 -0.890232 135 88 97
3.98164 -1.00667 9.68738 0.384366 0.244514 -0.890211 134 88 99
4.18726 -0.983032 9.82745 0.127632 0.888083 -0.441609 62 48 67
4.22739 -0.977298 9.84835 0.127613 0.888103 -0.441575 70 60 82
4.27945 -0.989996 9.93046 0.367086 0.473167 -0.80085 148 109 120
4.28701 -0.969666 9.94595 0.367086 0.473167 -0.80085 147 107 116
4.36106 -0.964674 9.99908 0.206773 0.863243 -0.460496 139 93 102
4.50713 -0.92854 9.56687 0.120305 0.332248 -0.935488 152 105 113
4.65258 -0.928244 9.57782 0.120696 0.331449 -0.935721 144 96 104
4.6953 -0.929687 9.60434 0.524567 0.712953 -0.465325 135 88 95
4.7243 -0.911511 9.63961 0.122118 0.330949 -0.935714 148 100 109
4.88966 -0.902265 9.51827 -0.0520626 0.255793 -0.965329 142 122 148
4.9128 -0.902626 9.52213 0.453315 0.660294 -0.598763 119 122 155
5.00024 -0.88171 9.51541 -0.0521442 0.25711 -0.964974 79 80 115
4.84432 -0.929679 10.4214 -0.391766 0.0673612 -0.917596 84 85 120
4.96076 -0.922503 10.3915 -0.336456 -0.129789 -0.932712 122 86 102
5.1554 -0.899396 10.3703 -0.406695 -0.109398 -0.90699 143 98 106
5.23169 -0.877541 10.2919 0.249086 0.0492093 -0.967231 142 94 102
5.41604 -0.87832 10.3569 0.230772 0.250067 -0.940325 161 114 122
5.62415 -0.840164 10.1525 -0.196991 -0.190606 -0.961698 80 84 121
5.66448 -0.856858 10.4486 0.100675 0.382585 -0.918419 70 77 117
5.67631 -0.836292 10.4586 0.1005 0.382747 -0.918371 79 88 127
5.71945 -0.838397 10.5163 0.0994374 0.401878 -0.910278 123 102 122
5.71946 -0.838394 10.5163 0.099438 0.401878 -0.910278 123 102 122
5.749 -0.837338 10.497 0.101088 0.399752 -0.911032 141 101 112
5.77248 -0.837996 10.5134 0.0990605 0.402538 -0.910028 146 102 110
5.7779 -0.835107 10.5203 -0.133612 0.31704 -0.938953 146 102 110
5.80139 -0.835887 10.5326 -0.135847 0.324956 -0.935921 145 101 109
5.82141 -0.838771 10.5349 0.0992561 0.402447 -0.910047 140 97 104
5.8299 -0.835191 10.5143 -0.136373 0.319135 -0.937846 138 95 102
5.9772 -0.812742 10.4801 -0.13341 0.323259 -0.936859 152 106 112
2.55208 -1.11016 8.96227 0.390431 0.109095 -0.914146 142 100 110
2.57355 -1.11016 8.97143 0.390432 0.109094 -0.914145 137 97 112
2.58955 -1.11107 8.99432 0.390755 0.0992547 -0.915128 130 98 118
2.63702 -1.09179 9.0335 0.389765 0.0955578 -0.915943 108 108 140
2.63703 -1.09184 9.03313 0.389979 0.0957356 -0.915833 108 108 140
2.65659 -1.09211 9.0476 0.389883 0.095457 -0.915904 91 81 113
3.25857 -1.03255 9.09902 0.307108 0.0870861 -0.947682 146 101 111
3.35361 -1.03092 9.10486 0.306979 0.0869379 -0.947737 146 107 121
3.37558 -1.03092 9.11198 0.306979 0.0869379 -0.947737 142 116 137
3.38462 -1.0113 9.12099 0.306988 0.0869902 -0.947729 151 133 157
3.38469 -1.01129 9.12081 0.306618 0.0870134 -0.947847 151 133 157
3.4066 -1.0113 9.12811 0.306988 0.08699 -0.94773 139 138 171
3.45055 -1.0113 9.14236 0.306983 0.086992 -0.947731 102 79 109
3.55679 -1.04248 9.85342 -0.214025 0.00869767 -0.976789 144 99 108
3.57064 -1.01812 9.85035 -0.214029 0.00869904 -0.976789 134 87 96
3.61147 -1.03427 9.8503 0.242404 0.607194 -0.756674 135 88 97
3.5958 -1.01869 9.85279 -0.210535 0.0128086 -0.977502 134 87 97
3.63678 -1.0265 9.85974 0.242326 0.607071 -0.756797 132 86 94
3.71835 -1.00464 9.66025 0.445008 0.728555 -0.520746 143 96 104
3.66246 -1.01868 9.86821 0.345106 0.650225 -0.676838 144 97 105
3.70885 -1.02671 9.88506 0.242291 0.607334 -0.756598 144 97 104
3.73312 -1.01925 9.89883 0.24229 0.607334 -0.756598 152 103 111
3.75741 -1.01177 9.91261 0.242288 0.607334 -0.756598 146 97 105
3.78191 -1.0036 9.92438 0.307835 0.580303 -0.75398 141 92 101
3.94592 -0.986315 9.67844 0.383876 0.245204 -0.890233 146 100 107
3.96524 -0.986892 9.69857 0.383878 0.245081 -0.890266 146 101 109
3.96553 -0.986836 9.69756 0.38387 0.245235 -0.890227 146 101 109
4.24135 -0.950288 9.95756 0.361395 0.472498 -0.803828 131 114 138
4.63227 -0.910374 9.61077 0.121457 0.331108 -0.935743 135 87 95
4.66727 -0.890588 9.62323 0.121449 0.331107 -0.935745 151 103 111
4.66671 -0.890742 9.62535 0.121568 0.331054 -0.935748 151 103 111
4.69078 -0.890742 9.62848 0.121568 0.331054 -0.935748 150 104 111
4.87754 -0.881817 9.52518 -0.0519423 0.255764 -0.965343 136 101 122
4.96272 -0.861484 9.52851 -0.0520005 0.25581 -0.965328 82 87 123
4.88826 -0.902841 10.4098 -0.371225 0.0886631 -0.9243 87 91 125
5.18487 -0.877496 10.279 0.249743 0.0419214 -0.967404 135 88 98
5.19639 -0.856517 10.2829 0.249743 0.0419215 -0.967404 147 99 109
5.21839 -0.856859 10.2967 0.247782 0.0480389 -0.967624 149 102 110
5.41965 -0.829971 10.1979 0.745135 0.443854 -0.497762 147 98 107
5.40157 -0.857952 10.3662 0.25097 0.0412561 -0.967115 138 89 98
5.49555 -0.844943 10.3024 -0.421667 0.332395 -0.84363 144 103 118
5.59739 -0.819392 10.2606 -0.421236 0.333324 -0.843478 75 79 114
5.59347 -0.820467 10.2819 -0.42162 0.332705 -0.843531 74 76 111
5.66387 -0.815353 10.4583 0.100493 0.382715 -0.918385 70 80 119
5.68694 -0.815999 10.477 0.100478 0.382689 -0.918397 79 90 126
5.71505 -0.815328 10.4639 0.100489 0.382716 -0.918385 108 101 128
5.73842 -0.815918 10.4819 0.0991105 0.402155 -0.910191 124 92 108
5.75859 -0.817407 10.521 0.0990615 0.402538 -0.910028 132 88 98
5.79286 -0.813259 10.521 -0.136604 0.326163 -0.935392 130 85 93
5.81668 -0.813988 10.5304 -0.136345 0.319218 -0.937822 133 89 97
5.84398 -0.813571 10.5196 -0.136373 0.319135 -0.937846 137 94 99
5.88127 -0.79279 10.5388 -0.136369 0.319242 -0.93781 151 105 111
2.5995 -1.09094 9.00075 0.390756 0.0992547 -0.915128 136 107 129
2.60584 -1.07137 9.01635 0.389576 0.0955821 -0.916021 130 107 129
3.19762 -1.02515 9.06697 0.049033 0.285033 -0.957263 153 109 116
3.39299 -0.991813 9.13186 0.307323 0.087506 -0.947573 152 144 170
3.41705 -0.991373 9.13333 0.306987 0.0869907 -0.94773 130 132 166
3.45376 -0.992622 9.16938 0.307755 0.0872716 -0.947455 99 70 92
3.54235 -1.01827 9.85927 -0.213526 0.00955801 -0.976891 128 83 92
3.54404 -0.998517 9.86657 0.404009 0.411731 -0.816856 144 98 107
3.58442 -0.993756 9.84755 -0.0410211 0.554849 -0.830939 145 99 108
3.63678 -1.00399 9.8778 0.242325 0.607071 -0.756798 145 100 107
3.65896 -0.99703 9.8995 0.255351 0.59605 -0.761262 141 95 102
3.68247 -0.989603 9.9152 0.512891 0.0470302 -0.857164 133 85 93
3.7068 -1.0047 9.91088 0.242537 0.607139 -0.756676 141 93 101
3.73309 -0.996686 9.91693 0.233934 0.183559 -0.954767 134 86 93
3.75741 -0.989205 9.93073 0.242288 0.607334 -0.756599 148 100 107
3.95012 -0.96269 9.61788 0.692347 -0.410624 -0.593332 149 101 109
3.96336 -0.945646 9.70042 0.38402 0.244488 -0.890368 137 91 99
4.11257 -0.934465 9.76066 0.574318 0.697257 -0.428943 74 70 96
4.17581 -0.943721 9.8667 0.158503 -0.0241482 -0.987063 104 104 133
4.47558 -0.907421 9.54867 0.114994 0.329551 -0.937109 149 103 113
4.46913 -0.88596 9.531 0.117128 0.329864 -0.936734 135 89 100
4.49322 -0.88596 9.53401 0.117127 0.329864 -0.936734 139 92 102
4.51358 -0.886787 9.55103 0.127788 0.331019 -0.934931 142 95 103
4.62812 -0.871251 9.63336 0.121037 0.331427 -0.935685 142 94 102
4.65512 -0.870526 9.62563 0.121089 0.331298 -0.935724 139 91 99
4.89018 -0.861291 9.5294 -0.0518918 0.255823 -0.96533 143 120 145
4.87758 -0.840956 9.53812 -0.0520146 0.255881 -0.965308 138 100 119
4.90117 -0.841185 9.54032 -0.0520121 0.255876 -0.96531 140 130 158
4.90564 -0.871913 10.3955 -0.336738 -0.129718 -0.932621 82 85 121
4.98715 -0.872105 10.3701 -0.336587 -0.129086 -0.932763 142 95 107
4.98599 -0.872374 10.3754 -0.336456 -0.129788 -0.932713 142 95 107
5.04179 -0.872243 10.3506 -0.336359 -0.129651 -0.932766 138 91 101
5.06908 -0.872243 10.3408 -0.336359 -0.129651 -0.932766 139 91 103
5.1516 -0.856075 10.2608 0.249754 0.041804 -0.967406 144 98 108
5.17292 -0.856517 10.2768 0.24975 0.0419201 -0.967403 143 96 107
5.18368 -0.835705 10.2846 0.250614 0.0411778 -0.967211 134 88 97
5.20638 -0.835868 10.2946 0.247778 0.0480397 -0.967625 134 87 95
5.22925 -0.83601 10.304 0.247884 0.0481186 -0.967594 134 87 94
5.25197 -0.836535 10.3122 0.250654 0.0424619 -0.967145 135 86 94
5.27843 -0.835764 10.3032 0.250341 0.042597 -0.96722 135 86 94
5.56058 -0.793619 10.2849 -0.421056 0.33336 -0.843554 101 99 132
5.67574 -0.794751 10.4682 0.100491 0.382716 -0.918385 75 85 125
5.70134 -0.794751 10.471 0.10049 0.382716 -0.918385 91 94 129
5.72705 -0.794718 10.4736 0.0982209 0.402722 -0.910037 110 88 112
5.74469 -0.796794 10.5285 0.0990618 0.402538 -0.910028 130 87 101
5.76818 -0.7974 10.5466 0.446684 0.42584 -0.78685 140 96 104
5.80465 -0.792332 10.5396 -0.136345 0.319219 -0.937822 148 104 112
5.83077 -0.792332 10.5358 -0.136345 0.319219 -0.937822 149 105 112
5.85638 -0.792459 10.5353 -0.136352 0.319221 -0.93782 151 106 111
5.88966 -0.772717 10.5819 -0.218483 0.443113 -0.869434 136 90 97
5.89232 -0.772038 10.5639 -0.135989 0.32062 -0.937395 136 90 97
5.94573 -0.771738 10.5461 -0.137817 0.316944 -0.938378 142 96 102
2.56978 -1.07032 8.9805 0.390665 0.105203 -0.914501 158 117 128
2.59434 -1.05122 9.01354 0.389576 0.0955824 -0.916021 131 97 112
3.20648 -1.00513 9.08282 0.0504113 0.285172 -0.95715 145 100 108
3.2362 -0.992447 9.09297 0.314642 0.0964302 -0.944299 158 112 121
3.40345 -0.971875 9.13709 0.307322 0.0875063 -0.947574 143 144 172
3.4275 -0.971444 9.13854 0.306984 0.0869918 -0.947731 124 124 156
3.44284 -0.972643 9.16509 0.306386 0.0872375 -0.947902 99 77 106
3.44947 -0.971447 9.14567 0.306983 0.086992 -0.947731 99 77 106
3.46422 -0.972668 9.17461 0.307753 0.0872719 -0.947455 115 78 96
3.55144 -0.977885 9.88147 0.403951 0.411699 -0.816901 137 91 99
3.61248 -0.988912 9.88212 0.243173 0.697333 -0.674236 136 91 99
3.73304 -0.974089 9.93505 0.242286 0.607334 -0.756599 151 104 110
3.76568 -0.964573 9.91714 0.239334 0.605749 -0.758807 155 108 114
3.78761 -0.957432 9.93911 0.239315 0.605752 -0.75881 152 104 111
3.81015 -0.95017 9.95941 0.239221 0.605654 -0.758918 142 94 102
3.94101 -0.945646 9.69079 0.38402 0.244488 -0.890368 136 88 95
3.95015 -0.925213 9.70033 0.38402 0.244488 -0.890368 153 105 112
3.98006 -0.923869 9.68343 0.182681 0.089726 -0.979069 149 103 112
4.08182 -0.932593 9.72225 0.159265 0.860954 -0.483107 66 65 94
4.16524 -0.922654 9.86025 0.15844 -0.024034 -0.987076 109 111 141
4.18894 -0.922654 9.86405 0.15844 -0.024034 -0.987076 106 109 141
4.47896 -0.866356 9.54446 0.11712 0.32989 -0.936726 152 105 115
4.49924 -0.867277 9.56133 0.120395 0.332263 -0.935471 154 108 117
4.56419 -0.869149 9.59288 0.525253 0.713162 -0.464229 149 100 109
4.59837 -0.876285 10.0606 0.273141 0.0771584 -0.958875 155 108 115
4.86563 -0.820425 9.5442 -0.0520148 0.255881 -0.965308 150 104 118
4.89097 -0.820225 9.53942 -0.0520944 0.255511 -0.965402 141 116 140
4.96227 -0.820719 9.54405 -0.0520191 0.255888 -0.965306 89 95 131
4.87812 -0.850186 10.458 -0.32948 -0.0193052 -0.943965 74 80 116
4.91827 -0.846819 10.3875 -0.336738 -0.129718 -0.932621 81 82 118
5.13825 -0.835426 10.2657 0.249707 0.0418203 -0.967418 144 95 107
5.14841 -0.81475 10.2765 0.249778 0.0416887 -0.967405 135 88 97
5.17172 -0.814716 10.2824 0.250604 0.0411795 -0.967213 134 87 97
5.19414 -0.815263 10.2919 0.251308 0.0426103 -0.966969 135 88 97
5.21763 -0.815263 10.298 0.251314 0.0426091 -0.966967 139 91 100
5.23878 -0.815782 10.3164 0.250363 0.0421484 -0.967234 146 98 106
5.34488 -0.794582 10.3401 0.250367 0.0421343 -0.967234 143 94 101
5.41074 -0.790373 10.2477 0.051736 -0.713022 -0.699231 151 101 111
5.71567 -0.778213 10.5241 -0.013005 0.559073 -0.829017 114 97 123
5.74062 -0.76609 10.5318 -0.0130052 0.559073 -0.829016 134 98 111
5.79602 -0.7698 10.5265 -0.136341 0.319533 -0.937715 142 97 104
5.81876 -0.77067 10.545 -0.136345 0.319219 -0.937822 138 94 101
5.84539 -0.77054 10.5382 -0.136296 0.319228 -0.937826 137 92 98
5.83288 -0.748982 10.5503 -0.136344 0.319218 -0.937822 144 100 107
5.85465 -0.750844 10.5835 0.488933 0.653027 -0.57836 146 101 108
5.92838 -0.751493 10.5921 -0.137849 0.316025 -0.938683 148 103 109
5.92855 -0.751422 10.5924 -0.136692 0.318559 -0.937996 148 103 109
5.95141 -0.752397 10.6082 -0.135102 0.312349 -0.940312 146 101 106
1.40588 -1.21153 10.2051 0.219732 0.203911 -0.954012 98 63 88
2.52217 -1.03059 8.9734 0.390173 0.104696 -0.91477 133 89 101
2.53374 -1.05071 8.97604 0.390174 0.104696 -0.914769 149 105 116
2.60321 -1.03112 9.02362 0.389791 0.0956446 -0.915923 130 105 123
2.6382 -1.03267 9.0608 0.65217 0.315734 -0.689192 106 108 140
3.21678 -0.973755 9.11354 0.30799 0.0865204 -0.947447 152 108 116
3.24024 -0.973523 9.11664 0.308554 0.0877479 -0.947151 146 103 111
3.26086 -0.973751 9.12787 0.307992 0.0865181 -0.947447 146 102 110
3.27918 -0.974356 9.14581 0.307801 0.0865941 -0.947502 145 101 109
3.34562 -0.952399 9.12717 0.207799 0.0773508 -0.975108 152 109 118
3.41598 -0.951515 9.13664 0.306982 0.0869928 -0.947731 132 136 168
3.45331 -0.952689 9.17031 0.306383 0.0872387 -0.947902 108 76 101
3.48681 -0.952619 9.7847 0.653136 0.695668 -0.299097 126 81 92
3.47738 -0.955093 9.78206 0.695529 0.542134 -0.471519 129 85 96
3.59931 -0.952567 9.8414 0.292601 0.323147 -0.899978 145 99 107
3.62736 -0.951637 9.83611 0.292151 0.320871 -0.900938 148 103 111
3.70525 -0.948433 9.93107 0.399658 0.382617 -0.832993 150 102 110
3.83474 -0.92869 9.56209 0.636939 0.634331 -0.438101 145 98 104
3.78761 -0.934722 9.95724 0.587045 0.62629 -0.512971 151 103 111
3.92563 -0.925596 9.69826 0.383948 0.244509 -0.890393 153 106 113
4.12687 -0.902692 9.85697 -0.0643859 0.213852 -0.974742 82 84 113
4.15649 -0.901752 9.84147 -0.0637003 0.213096 -0.974952 82 86 116
4.17717 -0.901875 9.86165 0.15844 -0.024034 -0.987076 89 92 124
4.46794 -0.846045 9.54289 0.120245 0.332212 -0.935509 146 100 109
4.48628 -0.847402 9.56673 0.120394 0.332263 -0.935471 145 98 106
4.49516 -0.854314 10.036 0.181182 0.696727 -0.694078 149 101 109
4.59253 -0.850956 9.63012 0.123198 0.331444 -0.935397 142 94 102
4.52412 -0.868555 10.0191 0.181214 0.696684 -0.694113 144 97 104
