ply
format ascii 1.0
element vertex 407
property float x
property float y
property float z
property float nx
property float ny
property float nz
property uchar diffuse_red
property uchar diffuse_green
property uchar diffuse_blue
property float psz
end_header
2.17800998688 1.42655003071 10.8654003143 -0.555401027203 0.492855995893 -0.669793009758 163 174 211 0.0119479997084
1.60973000526 -0.360738992691 10.0003004074 -0.855714023113 0.212198004127 -0.471938997507 111 75 90 0.0119667667896
1.60407996178 -0.357125014067 9.99038982391 -0.91934800148 -0.102880999446 -0.379754990339 111 75 90 0.0119667667896
2.15440011024 1.36968004704 10.8465003967 -0.649807989597 0.548344016075 -0.526373028755 163 176 211 0.0119824996218
1.78360998631 0.124984003603 10.4078998566 0.0534497983754 0.347497999668 -0.936155974865 132 88 95 0.012053553015
1.77936995029 0.119220003486 10.417599678 0.223263993859 0.424831986427 -0.877309024334 133 91 99 0.012053553015
2.15270996094 1.68482005596 10.9750003815 -0.161268994212 -0.325462013483 -0.931701004505 157 165 198 0.012060300447
1.6627600193 -1.5255099535 9.91384029388 -0.482243001461 0.107026003301 -0.869475007057 96 82 101 0.0120679000393
0.178063005209 -0.495599985123 10.0788002014 0.0454838983715 0.780225992203 -0.623842000961 142 94 102 0.0120839001611
2.14798998833 -0.124927997589 9.94067955017 -0.273458987474 0.763298988342 -0.585317015648 141 95 110 0.0121296001598
3.63994002342 0.355078011751 10.6127996445 0.233073994517 0.0589276999235 -0.970672011375 133 88 97 0.0121376244351
3.65051007271 0.355962008238 10.6187000275 -0.251884996891 0.343255996704 -0.904837012291 134 89 98 0.0121376244351
2.24032998085 -1.6663800478 9.92352962494 0.0239320006222 0.0322265997529 -0.999194025993 68 81 123 0.012146900408
5.35327005386 0.483958005905 10.8998003006 -0.409473985434 0.116695001721 -0.90482801199 129 151 186 0.0121987760067
5.36354017258 0.478888988495 10.9040002823 -0.287270009518 -0.015760300681 -0.95771998167 130 152 187 0.0121987760067
1.09020996094 -2.10461997986 9.5777797699 -0.438380002975 0.814056992531 -0.380964010954 140 97 118 0.0122130000964
1.11436998844 -2.1022400856 9.54349040985 -0.549910008907 0.76530200243 -0.334531009197 146 103 125 0.0122143002227
2.10873007774 1.68482005596 10.9764995575 -0.227239996195 0.441680014133 -0.867918014526 158 165 199 0.0122322998941
2.03010010719 1.4910800457 10.8815002441 -0.0043430798687 0.109785996377 -0.993946015835 164 176 212 0.0122571997344
0.322580993176 1.32641994953 10.8170995712 -0.051229801029 0.192583993077 -0.979942023754 163 177 214 0.0122771002352
5.28234004974 -0.0540064014494 10.2376003265 0.276115000248 0.175655007362 -0.944936990738 140 94 101 0.012296916917
5.28451013565 -0.053707100451 10.2255001068 0.1434610039 0.152024000883 -0.977909982204 140 94 100 0.012296916917
6.14903020859 -0.266952008009 12.9214000702 -0.508354008198 0.280440986156 -0.814204990864 36 39 60 0.0123169012368
6.14904022217 -0.255172997713 12.9177999496 -0.383260011673 0.284550011158 -0.878717005253 37 40 61 0.0123169012368
0.124686002731 1.36518001556 10.8268995285 0.0331436991692 0.254061996937 -0.966620028019 170 186 222 0.0123191000894
0.832135975361 -2.17551994324 9.46391963959 -0.366331994534 0.874514997005 -0.317842006683 152 113 139 0.0123309995979
1.40297996998 1.9744900465 11.0522003174 -0.290113002062 -0.256875991821 -0.921872973442 110 138 119 0.0123314997181
5.75578022003 -0.144596993923 10.7554998398 0.0323699004948 0.380362004042 -0.924270987511 84 61 75 0.0123430462554
5.7539100647 -0.144665002823 10.7677001953 0.0333467014134 0.380807995796 -0.924053013325 82 62 75 0.0123430462554
1.45069003105 1.94059002399 11.0233001709 -0.191626995802 -0.0492838993669 -0.980229973793 102 131 113 0.0123522998765
-0.169540002942 0.146500006318 10.3997001648 -0.193409994245 0.285223007202 -0.938744008541 155 105 112 0.0123543618247
-0.175146996975 0.149808004498 10.3892002106 -0.141407996416 0.228597998619 -0.963195979595 154 106 112 0.0123543618247
3.41995000839 0.643110990524 10.6990003586 -0.0714235007763 0.445432990789 -0.892462015152 127 143 174 0.0123560475186
3.43119001389 0.639267981052 10.695599556 -0.124297000468 0.792533993721 -0.597027003765 126 141 172 0.0123560475186
2.17490005493 1.64714002609 10.9799995422 -0.0562527999282 -0.610904991627 -0.789703011513 160 160 189 0.012359100394
1.05710995197 -2.12967991829 9.57711982727 0.153174996376 0.88667601347 -0.436284005642 147 113 144 0.0124001000077
0.192700996995 1.32568001747 10.8191995621 0.0286136008799 0.271829009056 -0.961920022964 173 188 224 0.0124014997855
0.562757015228 -0.650564014912 9.67418956757 -0.486690998077 0.550397992134 -0.678376019001 134 85 95 0.0124180000275
3.68111991882 -0.248619005084 10.4615001678 -0.429998993874 0.343555003405 -0.834908008575 128 76 84 0.0124204792082
3.67060995102 -0.244654998183 10.456199646 0.654844999313 -0.308066993952 -0.690124988556 131 82 87 0.0124204792082
1.98827004433 1.4910800457 10.8830003738 -0.0370049998164 -0.0145990001038 -0.99920797348 164 174 210 0.0124204996973
6.64491987228 -1.86344003677 10.2118997574 0.303160995245 0.497527003288 -0.812749028206 132 90 99 0.0124343987554
1.87112998962 0.504513025284 10.3885002136 -0.784850001335 0.518058001995 -0.340039014816 113 71 77 0.0124513003975
0.424591988325 1.94571995735 11.0360002518 -0.142538994551 -0.105071000755 -0.984196007252 147 156 182 0.0124530997127
5.89204978943 -1.22180998325 10.2701997757 0.137907996774 0.553798019886 -0.821151018143 144 101 106 0.0124574638903
5.89383983612 -1.2209700346 10.257900238 0.13788600266 0.553698003292 -0.821222007275 144 101 106 0.0124574638903
1.96122002602 0.284817993641 10.4472999573 -0.167098999023 0.260170996189 -0.95099401474 135 91 98 0.0124612879008
1.96457004547 0.285061001778 10.4352998734 -0.171810001135 0.247391998768 -0.953561007977 135 92 98 0.0124612879008
2.02850008011 1.67913997173 10.970700264 -0.0986089035869 -0.332352995872 -0.937986016273 165 162 191 0.0124655002728
0.567192018032 -0.345977008343 10.154800415 -0.00426152022555 0.358657985926 -0.933459997177 137 87 96 0.0124671999365
1.93482005596 1.4910800457 10.8738002777 -0.394452989101 0.391851991415 -0.831179022789 161 173 209 0.0124717000872
5.85926008224 -1.35233998299 10.2032003403 0.106724001467 0.279686003923 -0.954141020775 144 97 105 0.0124733773991
5.85740995407 -1.35327994823 10.2154998779 0.107175000012 0.280191004276 -0.953943014145 144 97 105 0.0124733773991
7.19524002075 0.0887648016214 10.9511003494 -0.734735012054 -0.386088013649 -0.55776399374 137 134 159 0.0124797997996
4.53662014008 1.12678003311 10.8030004501 -0.998714983463 0.046346899122 0.0204837005585 131 152 179 0.0124835995957
0.867492973804 1.89243996143 10.9924001694 0.0606595985591 0.155031993985 -0.986045002937 139 146 171 0.0124882999808
0.308932989836 0.409372001886 10.4631996155 0.138928994536 0.310956001282 -0.94021499157 139 94 98 0.012523856014
0.315578997135 0.406107008457 10.4732999802 0.140265002847 0.354160010815 -0.924606025219 139 93 98 0.012523856014
1.31896996498 1.96571004391 11.0197000504 -0.203630998731 -0.562331974506 -0.801446974277 107 137 117 0.0125294001773
0.355093002319 1.51608002186 10.8832998276 -0.206547006965 0.163399994373 -0.964695990086 160 175 212 0.0125313997269
1.16044998169 1.42070996761 10.8290996552 0.346711009741 0.249127998948 -0.904281973839 122 133 170 0.012533900328
-0.600754022598 -0.95422399044 9.81799983978 -0.106058999896 0.842226982117 -0.52858799696 125 80 91 0.01254399959
0.149964004755 1.32569003105 10.8179998398 0.0286130998284 0.27184098959 -0.961916983128 171 187 223 0.0125646004453
6.09119987488 -0.639967024326 10.535900116 -0.159635007381 0.319808006287 -0.933938026428 139 96 101 0.0125689739361
6.10129022598 -0.64724200964 10.5376996994 0.203075006604 0.632566988468 -0.747408986092 137 95 100 0.0125689739361
-1.16381001472 -0.781162023544 10.2079000473 0.231463998556 0.230477005243 -0.94514799118 138 92 102 0.012571499683
5.72070980072 -1.04833996296 10.424200058 0.511574983597 0.246353000402 -0.823166012764 132 95 110 0.0125746596605
5.71873998642 -1.04903995991 10.4365997314 0.222664996982 0.364225000143 -0.90430098772 132 95 110 0.0125746596605
-1.26645994186 -0.637911975384 10.1752004623 0.122175000608 0.0401670001447 -0.991696000099 126 85 97 0.0125761004165
0.329483985901 1.76805996895 10.9686002731 0.0884170010686 0.0920139998198 -0.99182498455 170 183 220 0.0125850997865
1.45604002476 2.0123500824 11.0284004211 -0.190275996923 -0.0499703995883 -0.980458021164 132 157 140 0.0125932004303
1.41214001179 1.81184995174 11.0016002655 0.266977012157 0.412494987249 -0.870959997177 120 129 155 0.0125997290015
1.40843999386 1.81974005699 10.9925003052 0.290030002594 0.155303999782 -0.944332003593 119 129 153 0.0125997290015
1.98708999157 1.67913997173 10.9717998505 -0.00413883989677 -0.287631005049 -0.957732975483 168 165 195 0.0126120997593
1.14848005772 -2.07772994041 9.54349040985 -0.553089976311 0.761974990368 -0.336876004934 134 92 111 0.012647099793
2.08693003654 1.64714002609 10.9829998016 -0.178064003587 -0.337217986584 -0.924434006214 165 175 210 0.0126809002832
5.97354984283 -1.69529998302 10.1388998032 0.24067799747 0.24758400023 -0.938497006893 150 104 113 0.0126914596185
5.97534990311 -1.69403994083 10.1263999939 -0.111050002277 0.221251994371 -0.968873023987 150 104 113 0.0126914596185
0.357205986977 0.91320002079 10.654800415 -0.0746036991477 0.243259996176 -0.967087984085 120 131 162 0.0126925678924
0.363034009933 0.924216985703 10.6524000168 0.0140217002481 0.325713992119 -0.945363998413 129 142 176 0.0126925678924
2.52157998085 -0.608668982983 10.2629995346 -0.144235998392 0.363101005554 -0.920517981052 85 81 113 0.012696181424
2.52184009552 -0.618835985661 10.255399704 -0.31340700388 0.300498008728 -0.900820016861 84 79 112 0.012696181424
0.656946003437 -0.316962003708 10.1658000946 0.0490874014795 0.257252991199 -0.965097010136 148 99 109 0.0126978000626
2.22620010376 -1.57527005672 9.96098041534 -0.582104980946 0.238020002842 -0.777495980263 115 111 148 0.0127018000931
6.4493098259 -1.12038004398 10.4792003632 0.219668999314 0.0842835009098 -0.971926987171 105 76 91 0.0127108786255
6.44842004776 -1.12179994583 10.4918003082 -0.20228099823 -0.0742947980762 -0.976504981518 105 76 91 0.0127108786255
1.57906997204 -0.339468985796 10.1007003784 -0.900303006172 0.168623000383 -0.401273995638 81 81 111 0.0127242002636
1.56429994106 1.97622001171 11.0146999359 0.0490260012448 -0.220804005861 -0.974084973335 120 147 128 0.0127253001556
2.20702004433 -1.6663800478 9.94209003448 0.356052011251 0.00207614991814 -0.934463977814 128 131 170 0.0127261001617
1.21777999401 1.97529995441 11.0104999542 -0.122588999569 -0.604923009872 -0.786791026592 110 139 118 0.0127307996154
-1.12466001511 -0.776929020882 10.207400322 0.229623004794 -0.0714033022523 -0.970656991005 139 95 104 0.0127400998026
0.669456005096 -0.3491320014 10.1694002151 -0.0673222988844 0.585317015648 -0.808004975319 137 88 97 0.0127427000552
2.137830019 1.1461700201 10.8163995743 0.100578002632 0.0340524986386 -0.994346022606 144 167 197 0.0127643141896
2.1392800808 1.14402997494 10.803899765 0.072972998023 -0.0719780996442 -0.99473297596 146 164 196 0.0127643141896
0.695722997189 -0.26361900568 10.1958999634 -0.00182935001794 0.35166400671 -0.936124026775 152 105 114 0.0127683002502
7.16284990311 -0.0100173000246 10.9849996567 -0.747210025787 -0.14114099741 -0.649428009987 123 141 172 0.0127774998546
4.75821018219 -1.10555994511 9.52738952637 0.133135005832 0.0704483017325 -0.988591015339 158 109 120 0.0128058046103
4.76068019867 -1.10460996628 9.5148601532 0.133387997746 0.0706659033895 -0.988541007042 155 108 118 0.0128058046103
2.43195009232 0.0750084966421 9.58162975311 0.324443012476 0.0588140003383 -0.944074988365 139 95 103 0.0128135690466
2.4369699955 0.0750052034855 9.56984043121 0.325237989426 0.0579752996564 -0.943853020668 139 95 103 0.0128135690466
7.27103996277 0.128964006901 10.8044996262 -0.740184009075 -0.294685989618 -0.604390978813 136 159 190 0.0128204999492
-1.14467000961 -0.811425983906 10.2052001953 0.231464996934 0.230474993587 -0.94514799118 133 88 97 0.0128445001319
6.54116010666 0.456398010254 11.119099617 0.335592985153 0.521947979927 -0.784186005592 158 181 215 0.0128493718803
6.5514998436 0.453144013882 11.1121997833 0.357603013515 0.506610989571 -0.784515976906 157 180 214 0.0128493718803
2.4251101017 0.095970697701 9.56704044342 0.325239002705 0.0579754002392 -0.943853020668 145 102 110 0.0128496000543
2.42006993294 0.095988497138 9.5788602829 0.324443012476 0.0588140003383 -0.944074988365 144 101 109 0.0128496000543
2.18454003334 -0.0445243008435 9.96210956573 -0.147073000669 0.594154000282 -0.790790975094 139 98 114 0.0128653002903
0.221192002296 0.204750999808 10.3421001434 -0.0879452005029 0.0762521028519 -0.993202984333 139 91 99 0.0128712002188
0.209617003798 1.44553995132 10.8564996719 0.090737901628 0.239024996758 -0.966764986515 167 179 217 0.0128953997046
1.51192998886 1.97789001465 11.008600235 -0.0946876034141 -0.120405003428 -0.98819899559 123 149 132 0.0128966001794
5.40224981308 -0.503570020199 10.4489002228 0.254216998816 0.147633999586 -0.955812990665 141 93 102 0.0129022933543
5.39999008179 -0.503835976124 10.4616003036 0.255071014166 0.148305997252 -0.955480992794 141 93 101 0.0129022933543
2.22804999352 -1.50646996498 9.98225021362 -0.620869994164 0.123019002378 -0.774200975895 114 109 144 0.0129086002707
-0.501092016697 0.878692984581 10.6794996262 -0.0280470997095 0.215111002326 -0.976186990738 128 79 88 0.0129142003134
3.31662988663 0.876061022282 10.8023996353 0.353565990925 0.301883995533 -0.885357022285 147 164 197 0.0129299499094
1.58528995514 -0.30014398694 10.0989999771 -0.900803983212 0.168876007199 -0.400041997433 92 75 99 0.0129361003637
-1.07928001881 -0.0474462993443 10.3940000534 -0.085065998137 0.896513998508 -0.434772014618 143 100 108 0.0129423998296
2.97158002853 0.253107994795 10.1592998505 0.0657686963677 0.230807006359 -0.970773994923 131 87 97 0.0129552995786
0.287301003933 1.47915995121 10.886300087 -0.198669999838 0.160310000181 -0.966867029667 170 184 220 0.0129570998251
2.04432010651 1.64714002609 10.9912004471 -0.20268599689 -0.518207013607 -0.830891013145 168 179 213 0.0129776000977
7.41572999954 -0.0303389001638 10.8120002747 -0.448956996202 -0.317990005016 -0.835057020187 111 111 135 0.0129835996777
5.48652982712 -0.482782006264 10.4611997604 0.250384002924 0.147010996938 -0.956920027733 136 90 98 0.0129905231297
5.48433017731 -0.483045995235 10.4739999771 0.254031002522 0.148360997438 -0.955749988556 136 91 98 0.0129905231297
2.68847990036 1.43757998943 10.923500061 -0.012116599828 0.124562002718 -0.992138028145 157 173 208 0.0129940155894
2.68144989014 1.43980002403 10.9127998352 -0.0236312001944 0.230957999825 -0.972676992416 157 173 208 0.0129940155894
3.81793999672 0.452226012945 10.7088003159 0.211627006531 0.542482018471 -0.812974989414 114 83 90 0.0129942400381
3.81815004349 0.461784988642 10.7175998688 -0.0215668994933 0.325648009777 -0.945245027542 98 71 80 0.0129942400381
-0.511434972286 1.02509999275 10.7355003357 -0.0229129996151 0.206800997257 -0.978115022182 142 152 186 0.0130056003109
4.41813993454 0.316801995039 10.7206001282 0.266234993935 0.746293008327 -0.610054016113 126 85 90 0.0130084622651
4.40565013885 0.319902986288 10.7224998474 0.0636778026819 0.78865301609 -0.611531972885 124 83 90 0.0130084622651
0.364648014307 1.32641994953 10.8149003983 -0.0361387990415 0.241799995303 -0.969653010368 160 172 209 0.0130104003474
1.44967997074 1.99123001099 11.0298995972 -0.0604364015162 -0.0396864004433 -0.997382998466 119 147 129 0.0130131002516
2.97251009941 1.24656999111 10.8538999557 0.356988012791 -0.232587993145 -0.904689013958 149 163 197 0.0130158001557
-0.632360994816 -0.845856010914 10.0843000412 -0.453368008137 0.743597984314 -0.491447001696 137 92 100 0.013028900139
5.33067989349 1.02664005756 11.0567998886 -0.3968270123 0.379936993122 -0.835569024086 93 113 157 0.0130387945101
5.32275009155 1.01747000217 11.0615997314 -0.182731002569 0.176910996437 -0.967114984989 75 95 138 0.0130387945101
2.19451999664 -1.63446998596 9.95882034302 -0.502775013447 0.242105007172 -0.829820990562 134 115 143 0.0130482995883
7.24162006378 -0.0691808015108 10.9393997192 -0.63608199358 -0.0500393994153 -0.769997000694 91 98 123 0.0130904000252
0.849547982216 1.86015999317 11.0015001297 -0.080108396709 0.439644992352 -0.894591987133 163 171 205 0.0130930999294
6.86939001083 0.0200755000114 10.9371004105 0.0649902969599 -0.512591004372 -0.856169998646 71 77 99 0.0131002999842
2.86332011223 0.340039998293 10.2426996231 -0.653504014015 0.233291998506 -0.720073997974 137 92 100 0.0131147103384
2.87178993225 0.33687800169 10.2522001266 -0.65384799242 0.232841998339 -0.719907999039 137 93 100 0.0131147103384
0.583097994328 1.16445994377 10.7454996109 0.00401538982987 0.293518006802 -0.955945014954 163 178 214 0.0131187001243
1.54724001884 -0.497662007809 10.0406999588 -0.843843996525 0.171538993716 -0.50843000412 95 97 130 0.0131257995963
5.26074981689 0.260293990374 10.8495998383 0.295433014631 -0.0640780031681 -0.953212022781 40 36 53 0.0131259579211
5.25754022598 0.259458988905 10.8368997574 0.119414001703 0.00141031004023 -0.992843985558 40 35 52 0.0131259579211
0.0246578995138 0.319642990828 10.3998003006 0.0832130014896 -0.200255006552 -0.976203978062 135 90 96 0.0131317004561
1.12683999538 1.42070996761 10.8434000015 -0.0745335966349 0.3554880023 -0.931703984737 159 170 206 0.0131403999403
0.350562006235 1.44104003906 10.8633003235 -0.188049003482 0.201111003757 -0.961349010468 156 172 208 0.0131406998262
4.37793016434 0.346547991037 10.7370004654 0.22117100656 0.212356999516 -0.951834022999 107 74 84 0.0131471436471
4.3893699646 0.341886997223 10.7325000763 0.133515000343 0.489690989256 -0.861612975597 109 77 86 0.0131471436471
2.67829990387 -0.447825014591 9.20493984222 -0.097409799695 0.314076989889 -0.944387018681 108 115 150 0.0131475375965
2.6735599041 -0.448092997074 9.21720027924 -0.096756502986 0.313616007566 -0.944607019424 110 116 150 0.0131475375965
1.69297003746 -1.49945998192 9.92518997192 -0.448513001204 0.249656006694 -0.858201026917 99 77 97 0.0132112000138
3.33232998848 0.269679009914 10.2740001678 0.385376989841 0.0945636034012 -0.917900979519 34 34 45 0.0132158482447
3.32836008072 0.270052999258 10.2866001129 0.385338008404 0.0947967022657 -0.917894005775 32 32 44 0.0132158482447
7.27797985077 0.0656369999051 10.8236999512 -0.52924901247 -0.381348997355 -0.757937014103 127 148 181 0.0132242003456
-0.187287002802 -0.112204000354 10.2421998978 0.134498000145 0.598892986774 -0.789453983307 136 87 93 0.0132302995771
0.994377017021 1.86204004288 10.9688997269 0.106159001589 0.128750994802 -0.985978007317 147 153 184 0.0132326995954
7.32507991791 0.035795301199 10.8295001984 -0.380369007587 -0.237418994308 -0.893841028214 122 142 176 0.0132347997278
2.29218006134 -0.31649300456 9.44748020172 0.44962900877 0.401416003704 -0.797935009003 138 92 100 0.0132599696517
2.29680991173 -0.312065988779 9.43587017059 0.162391006947 0.227601006627 -0.960117995739 135 90 98 0.0132599696517
0.637148022652 -0.408270001411 10.1464004517 0.0502647012472 0.243950992823 -0.96848398447 128 80 89 0.013267500326
1.71779000759 -1.52225005627 9.87726974487 -0.217999994755 0.282649993896 -0.934122979641 130 98 119 0.0132726999
0.875216007233 0.624085009098 10.4801998138 -0.326972007751 0.355028003454 -0.875810980797 144 99 110 0.013289402239
0.878895998001 0.621037006378 10.492600441 -0.327890992165 0.355138003826 -0.875423014164 145 99 110 0.013289402239
2.66566991806 -0.539246022701 9.19976043701 -0.0973746031523 0.314296007156 -0.944317996502 91 93 126 0.0133110424504
2.67052006721 -0.538865983486 9.18737030029 -0.0967570990324 0.313616991043 -0.944607019424 86 89 123 0.0133110424504
-0.949115991592 -0.567268013954 10.1514997482 -0.139971002936 0.273097991943 -0.951749026775 131 84 97 0.0133186001331
2.7183599472 0.078080996871 10.4299001694 0.0538276992738 0.216080993414 -0.974891006947 139 98 103 0.0133239291608
2.71971011162 0.0674372017384 10.4219999313 0.0880753993988 0.107124000788 -0.990337014198 137 96 101 0.0133239291608
1.70902001858 -1.5780800581 9.85842990875 -0.471881002188 0.155072003603 -0.867918014526 128 101 121 0.0133336000144
0.306363999844 1.44103002548 10.8724002838 -0.198651999235 0.160392999649 -0.966856002808 167 180 217 0.0133351003751
1.70396995544 -1.55348002911 9.88094043732 -0.526901006699 0.301797986031 -0.794539988041 129 95 113 0.013344200328
0.292239010334 1.7689499855 10.9608001709 0.0877230018377 0.0960412994027 -0.991504013538 167 182 218 0.0133445002139
2.98690009117 0.561290025711 10.5354995728 0.0708087980747 0.677878975868 -0.731755018234 132 95 101 0.0133488001302
0.891272008419 -2.19018006325 9.53507041931 -0.144780993462 0.971943974495 -0.185374006629 139 98 123 0.0133568001911
2.40773010254 -0.428988993168 9.97126960754 -0.23374299705 0.463495999575 -0.854713976383 115 80 96 0.0133595000952
7.21728992462 -0.0537821017206 10.9589996338 -0.646773993969 -0.0551385991275 -0.76068598032 107 120 148 0.0133621999994
1.04815995693 -2.15227007866 9.54349040985 -0.564410984516 0.746949017048 -0.351435989141 145 101 125 0.013382400386
1.55534005165 -1.71808004379 9.8416595459 -0.717248976231 0.232405006886 -0.656919002533 105 70 88 0.0134015996009
3.19383001328 0.771524012089 10.7279996872 -0.0604871995747 0.0656569004059 -0.996007025242 148 167 199 0.0134140877053
1.65944004059 -1.70785999298 9.87325000763 -0.435611009598 0.245998993516 -0.865867972374 92 75 98 0.0134148001671
5.88609981537 -1.73195004463 10.0797996521 0.203099995852 0.147067993879 -0.968050003052 152 111 117 0.0134468888864
5.88820981979 -1.73048996925 10.0665998459 0.203079000115 0.146578997374 -0.968128979206 153 111 117 0.0134468888864
0.484995007515 -0.288318008184 10.1757001877 -0.101484999061 0.382665008307 -0.918296992779 139 89 95 0.0134674999863
0.488694012165 -0.319950014353 10.182100296 0.288231998682 0.434751987457 -0.853178024292 137 89 94 0.0134723000228
1.76657998562 0.200619995594 10.444899559 -0.0870822966099 0.323473006487 -0.942221999168 116 79 86 0.013473700732
1.77225005627 0.201371997595 10.4327001572 -0.1774020046 0.278245985508 -0.943984985352 114 77 84 0.013473700732
0.961161017418 1.79554998875 10.984000206 -0.327273994684 -0.219780996442 -0.91901499033 174 184 221 0.0134787997231
5.26078987122 0.214516997337 10.8498001099 -0.147218003869 -0.00461596995592 -0.989093005657 121 84 92 0.0135003700852
5.25754976273 0.21617500484 10.8367996216 0.38174200058 -0.0887636989355 -0.919996976852 115 80 88 0.0135003700852
7.43312978745 -0.0553717017174 10.8121995926 -0.384905010462 -0.478814989328 -0.789040029049 103 98 120 0.0135022997856
0.484358996153 -0.343730986118 10.1503000259 -0.0870020017028 0.386572986841 -0.918146014214 138 90 96 0.0135169001296
4.68217992783 0.939540982246 10.9510002136 0.213094994426 -0.140175998211 -0.966924011707 156 173 208 0.0135228279978
2.43243002892 1.41872000694 10.9097995758 -0.119303002954 0.404909998178 -0.906539976597 159 176 210 0.0135265998542
5.62414979935 -0.840164005756 10.1525001526 -0.196990996599 -0.190605998039 -0.961697995663 80 84 121 0.0135612003505
0.597373008728 0.521036028862 10.4903001785 -0.687029004097 -0.261806994677 -0.677825987339 139 96 103 0.0135620003566
3.27578997612 -0.0921699032187 9.99328041077 -0.33032399416 0.331530988216 -0.883727014065 77 80 111 0.0135637000203
0.458871006966 -0.263729006052 10.2069997787 0.0752642974257 0.474251002073 -0.877166986465 136 85 92 0.0135700004175
1.57087004185 -0.377608001232 10.0991001129 -0.908303976059 0.0981514975429 -0.406634002924 94 82 110 0.013577199541
1.07718002796 1.99246001244 10.9955997467 -0.0655312985182 -0.476121991873 -0.876933991909 113 137 123 0.0135818002746
2.66708993912 -0.127070993185 9.29969978333 -0.0950981974602 0.311361014843 -0.945522010326 120 118 143 0.0135859306902
2.66240000725 -0.127131000161 9.31245040894 -0.0953880026937 0.316825985909 -0.943674981594 120 117 142 0.0135859306902
0.32721298933 1.4024399519 10.861700058 -0.198652997613 0.16040199995 -0.966854989529 162 177 213 0.0136000001803
5.39544010162 1.17128002644 11.0257997513 -0.194995999336 -0.730928003788 -0.654003977776 114 128 157 0.0136157004163
7.2350897789 0.212633997202 10.858300209 -0.789285004139 -0.253316998482 -0.559338986874 145 168 201 0.0136229423806
7.22661018372 0.218351006508 10.8673000336 -0.742956995964 -0.374080985785 -0.555047988892 146 169 203 0.0136229423806
4.17560005188 -0.162900000811 10.5023002625 -0.367251008749 0.408046007156 -0.835838019848 85 80 86 0.0136396968737
4.18334007263 -0.164610996842 10.5134000778 -0.362067997456 0.256222009659 -0.896246016026 97 87 97 0.0136396968737
-1.04251003265 -0.033689700067 10.4095001221 -0.0904159992933 0.898353993893 -0.429866999388 145 101 108 0.013653899543
-0.491874992847 1.05797994137 10.7419996262 -0.0229134000838 0.206800997257 -0.978115022182 154 162 197 0.0136567996815
7.23484992981 0.109122999012 10.8846998215 -0.743641018867 -0.293359011412 -0.600781023502 137 158 190 0.0136628001928
-1.19349002838 0.981031000614 10.7243003845 -0.0717943012714 0.382113993168 -0.921321988106 135 97 108 0.0136628998443
0.2718270123 1.40644001961 10.8522996902 -0.156191006303 0.242503002286 -0.957494974136 171 186 223 0.0136700002477
1.08126997948 -2.12724995613 9.54349040985 -0.564411997795 0.746948003769 -0.351435989141 142 99 122 0.0136724002659
-1.21332001686 1.01460003853 10.7397003174 -0.0717921033502 0.382111996412 -0.921323001385 98 80 96 0.0136741995811
3.2569899559 -0.119318000972 9.98991966248 -0.352816998959 0.339989006519 -0.871738016605 79 79 104 0.0136777004227
0.335079014301 1.70645999908 10.9419002533 0.0113829998299 0.136423006654 -0.990585029125 168 182 219 0.0136924004182
0.659749984741 -0.149596005678 10.2368001938 -0.00784534029663 0.355924010277 -0.934481978416 152 102 110 0.0137200783938
0.665413022041 -0.153411999345 10.2487001419 -0.00739496015012 0.35684800148 -0.934132993221 152 103 110 0.0137200783938
0.468941986561 -0.315445005894 10.1621999741 -0.0871525034308 0.386532008648 -0.918148994446 135 86 92 0.0137224998325
7.34421014786 0.0048419800587 10.8295001984 -0.544534027576 -0.422661989927 -0.724457979202 112 131 164 0.0137269999832
2.92926001549 -0.0662060007453 10.0613002777 -0.77444601059 0.342220008373 -0.53208899498 135 88 97 0.0137339998037
7.24986982346 0.0663852021098 10.8429002762 -0.52924901247 -0.381348997355 -0.757937014103 127 148 180 0.0137376002967
1.6473300457 -1.67890000343 9.88757038116 -0.435611009598 0.245998993516 -0.865867972374 85 63 85 0.0137424003333
3.26331996918 -0.0650217980146 10.0076999664 -0.00708014005795 0.387796014547 -0.921718001366 95 96 127 0.013745999895
0.450388014317 -0.343436986208 10.1521997452 -0.0871338024735 0.386552989483 -0.918142020702 140 91 98 0.0137643003836
1.38861000538 1.97715997696 11.0334997177 -0.191628992558 -0.0493016988039 -0.98022800684 118 145 128 0.0137700000778
0.98005002737 1.82801997662 10.980099678 -0.396221995354 0.120716996491 -0.910184979439 176 185 220 0.0137791996822
0.151530995965 1.40013003349 10.8460998535 -0.0621602982283 0.123309999704 -0.990419983864 173 188 224 0.0137855997309
4.16582012177 -0.569719016552 10.4575004578 -0.146442994475 0.42109400034 -0.895116984844 110 95 123 0.0137889040634
0.438560992479 1.61661994457 10.915599823 -0.254945009947 0.130003005266 -0.958176016808 168 179 217 0.013799100183
0.384088993073 1.94571995735 11.0418996811 0.450022011995 0.33072501421 -0.829518973827 151 157 184 0.0138007001951
3.52253007889 0.996221005917 10.8437995911 0.119131997228 0.33859500289 -0.933359980583 147 165 196 0.0138249974698
3.52890992165 0.993686020374 10.855799675 0.0876422971487 0.318623006344 -0.943821012974 147 165 196 0.0138249974698
0.474552989006 1.61721003056 10.9090003967 -0.121160000563 0.175301998854 -0.977030992508 171 183 221 0.0138333002105
0.450365006924 -0.288318008184 10.1794996262 -0.101484000683 0.382665008307 -0.918296992779 140 92 98 0.0138370003551
-1.16331994534 0.976940989494 10.7292995453 -0.0782492980361 0.369442999363 -0.925952970982 133 96 106 0.0138458004221
0.316574007273 1.73812997341 10.9460000992 0.0113827995956 0.136423006654 -0.990585029125 168 182 219 0.0138726998121
1.57027995586 -0.271822988987 10.1219997406 -0.809545993805 0.285228013992 -0.513109028339 98 87 111 0.0138729000464
2.83481001854 0.2951579988 10.2732000351 -0.659188985825 0.139714002609 -0.738883972168 127 82 91 0.0138874771073
2.82571005821 0.298628002405 10.263299942 -0.653504014015 0.233307003975 -0.720070004463 127 82 90 0.0138874771073
-1.16123998165 1.04377996922 10.754699707 -0.0899849012494 0.399755001068 -0.912194013596 107 107 135 0.013894200325
2.36279988289 -1.60843002796 9.74804019928 0.152634993196 0.093114502728 -0.983886003494 49 46 75 0.0138988001272
0.249409005046 1.44553005695 10.8603000641 0.0908335000277 0.238738000393 -0.966826021671 171 182 220 0.0138996997848
-1.14142000675 1.01042997837 10.7411003113 -0.0725162029266 0.371325999498 -0.925665974617 88 72 89 0.0139063000679
-0.661323010921 -0.846804022789 10.105099678 -0.453404009342 0.743624985218 -0.491371005774 141 96 103 0.0139126004651
1.50304996967 1.64210999012 10.9264001846 -0.241860002279 0.128049001098 -0.961825013161 167 178 213 0.0139212002978
1.78485000134 0.228412002325 10.4485998154 -0.339763998985 0.23195399344 -0.911459028721 129 86 93 0.0139398593456
1.77909004688 0.226199001074 10.4610996246 -0.0893922001123 0.323877006769 -0.941866993904 126 84 93 0.0139398593456
-1.11927998066 0.976402997971 10.7309999466 -0.0452018007636 0.374395996332 -0.926167011261 131 94 107 0.0139485001564
0.355868011713 1.73846995831 10.9477996826 -0.0237336996943 0.166617006063 -0.985736012459 170 183 221 0.0139506999403
0.497689992189 1.58080005646 10.8948001862 -0.254341006279 0.1304589957 -0.958275020123 170 182 218 0.0139557002112
1.56923997402 -0.317591995001 10.1319999695 -0.900303006172 0.168622002006 -0.401273995638 95 97 128 0.0139579996467
6.1766500473 -1.23642003536 10.4715995789 0.300487011671 0.630077004433 -0.716039001942 133 88 96 0.0139688998461
5.43486022949 -0.185470998287 10.6883001328 0.0616989992559 -0.295551002026 -0.95333302021 142 97 100 0.0139789003879
0.135419994593 1.1108700037 10.7192001343 -0.108785003424 0.475957006216 -0.872714996338 159 175 213 0.0139849996194
6.67299985886 -1.75910997391 10.3136997223 0.00435794983059 0.213745996356 -0.976880013943 140 95 105 0.0139883803204
6.66925001144 -1.74916994572 10.3227996826 0.298233002424 0.501711010933 -0.811999022961 142 97 106 0.0139883803204
0.34799900651 1.36397004128 10.851099968 0.072741702199 0.133057996631 -0.988434970379 159 174 210 0.0140171004459
5.90578985214 -0.750517010689 10.5748996735 -0.0291908998042 0.198033004999 -0.979761004448 144 99 107 0.0140201020986
5.90340995789 -0.751182019711 10.5887002945 -0.138019993901 0.316475003958 -0.938506007195 144 99 107 0.0140201020986
7.388879776 -0.0303389001638 10.8263998032 -0.288866013288 -0.71259701252 -0.639344990253 95 111 140 0.0140389995649
5.78634977341 -0.858564019203 10.5058002472 0.0990599021316 0.402538001537 -0.910027980804 140 97 105 0.0140417516232
5.78851985931 -0.857138991356 10.5195999146 -0.133551001549 0.317075997591 -0.938950002193 141 98 106 0.0140417516232
1.35096001625 0.226870000362 10.3480997086 0.325978010893 0.235100001097 -0.915678024292 143 92 101 0.014046500437
-1.10037994385 1.01042997837 10.7388000488 -0.0434373989701 0.377541005611 -0.924974024296 89 75 94 0.0140647003427
1.13828003407 1.95781004429 11.0163002014 0.149222001433 -0.0549907982349 -0.987273991108 119 139 124 0.0140861002728
-0.0139084002003 -0.14603599906 10.2397003174 0.236836001277 0.714308023453 -0.658537983894 144 96 104 0.0140925003216
1.70527994633 0.851960003376 10.6514997482 0.00466531980783 0.196338996291 -0.980525016785 155 172 207 0.0141031388193
1.71027004719 0.838953971863 10.6492996216 0.0493802987039 0.235804006457 -0.970544993877 151 170 205 0.0141031388193
7.17480993271 0.0151151996106 10.9766998291 -0.44413998723 -0.0939960032701 -0.891013026237 127 146 177 0.0141129996628
4.51186990738 0.458238989115 10.8331003189 0.188922002912 0.508267998695 -0.840222001076 108 124 154 0.0141166402027
4.5224199295 0.465530991554 10.8389997482 0.0762194991112 0.513800978661 -0.854516983032 108 125 155 0.0141166402027
2.51947999001 0.330612003803 10.4684000015 0.360444992781 -0.0117672001943 -0.932705998421 46 47 56 0.0141242751852
2.51660990715 0.341520994902 10.4598999023 0.0674213990569 0.00979105010629 -0.997677028179 48 50 59 0.0141242751852
0.692557990551 0.359007000923 10.4404001236 0.247793003917 0.568681001663 -0.784346997738 135 89 95 0.014126543887
0.679630994797 0.364125996828 10.442899704 0.0473362989724 0.458247005939 -0.887564003468 133 87 93 0.014126543887
0.457720011473 1.58070003986 10.9060001373 -0.255050987005 0.130014002323 -0.958146989346 168 180 217 0.0141276000068
6.67289018631 -2.00167989731 10.1372003555 0.0847970992327 0.195743992925 -0.97698199749 139 97 108 0.0141421090811
6.66317987442 -1.99708998203 10.1280002594 0.194878995419 -0.151525005698 -0.969052016735 140 98 109 0.0141421090811
7.18891000748 -0.0100141000003 10.9722995758 -0.502519011497 -0.071137599647 -0.861635029316 122 140 171 0.0141588998958
7.36607980728 -0.0233271997422 10.8295001984 -0.503320991993 -0.487361997366 -0.713545024395 114 111 136 0.0141669996083
0.945083022118 1.82801997662 10.995300293 -0.133658006787 -0.199028000236 -0.970835983753 179 188 225 0.0141673004255
3.23203992844 -0.0650217980146 10.0188999176 0.520487010479 -0.0639737993479 -0.851469993591 113 104 131 0.0141716999933
0.406650990248 1.9105900526 11.035900116 -0.212472006679 -0.497195988894 -0.841220021248 177 188 221 0.0142195001245
4.41813993454 0.341886997223 10.7369003296 0.208979994059 0.534738004208 -0.818768978119 108 76 86 0.0142245134339
4.41602993011 0.355747997761 10.7392997742 0.176926001906 0.35966899991 -0.916153013706 81 59 70 0.0142245134339
1.82999002934 1.82963001728 10.9577999115 -0.100203000009 -0.417665988207 -0.903059005737 94 122 111 0.0142380995676
1.56657004356 -0.417425006628 10.0991001129 -0.908303976059 0.0981514975429 -0.406634002924 81 84 116 0.0142639996484
1.1566400528 1.92569005489 11.0104999542 -0.0454147011042 0.0831696018577 -0.995500028133 101 119 114 0.0142641998827
0.395334988832 1.51608002186 10.8734998703 -0.235318005085 0.110785998404 -0.965583980083 162 174 211 0.0142652997747
0.516691982746 1.54491996765 10.8854999542 -0.255046993494 0.130013003945 -0.958148002625 167 180 216 0.0142660997808
1.50156998634 1.57053005695 10.9099998474 -0.646164000034 0.342292994261 -0.682134985924 165 178 213 0.0142711000517
1.72101998329 -1.44474995136 9.93282985687 -0.392814010382 0.178120002151 -0.902203023434 132 87 107 0.0142719997093
0.419124007225 1.58012998104 10.9195995331 -0.25790899992 0.143992006779 -0.955379009247 166 178 215 0.0142753003165
0.123424001038 -0.258679986 10.2138004303 -0.120685003698 0.671631991863 -0.73098897934 133 84 93 0.0142786996439
-1.05636000633 1.07763004303 10.7594003677 -0.0818706974387 0.361743986607 -0.928676009178 130 141 173 0.0142981000245
6.6612200737 -2.02218008041 10.1321001053 0.0197755005211 -0.403187006712 -0.914903998375 130 87 100 0.0143094034865
6.65078020096 -2.01789999008 10.1232995987 0.195723995566 -0.148220002651 -0.969393014908 129 87 99 0.0143094034865
1.11189997196 -0.385143995285 10.057100296 -0.588072001934 0.48289000988 -0.648836016655 146 95 104 0.0143285281956
1.11038005352 -0.389057993889 10.0707998276 -0.528643012047 0.424349009991 -0.735162973404 147 96 105 0.0143285281956
1.48775005341 1.60467994213 10.9264001846 -0.488615006208 0.209289997816 -0.847025990486 168 180 214 0.014351000078
-1.03312003613 1.11028003693 10.7737998962 -0.0759262964129 0.361030012369 -0.929458022118 142 155 187 0.0143515001982
1.1241300106 -2.07945990562 9.58325004578 -0.328085005283 0.0671363994479 -0.942259013653 142 97 117 0.0143534000963
5.65464019775 -1.64575004578 10.0146999359 0.101897999644 0.280308991671 -0.954486012459 148 105 117 0.0143566057086
5.65193986893 -1.64742994308 10.0286998749 0.101945996284 0.279940009117 -0.954589009285 148 105 116 0.0143566057086
1.79444003105 0.0328768007457 10.3347997665 0.0527805015445 0.0445595011115 -0.997611999512 118 77 87 0.01437304914
1.78550994396 0.0400292985141 10.3261003494 -0.172167003155 0.0949404984713 -0.980481982231 121 80 89 0.01437304914
0.428835004568 1.97493004799 11.0686998367 -0.24309900403 -0.180392995477 -0.953079998493 155 164 187 0.014377400279
4.2013001442 -0.00121152994689 10.5586996078 -0.504988014698 0.387753993273 -0.771125018597 100 79 93 0.0143776107579
4.2007598877 0.000175520995981 10.5729999542 -0.482340991497 0.260574012995 -0.836329996586 94 55 67 0.0143776107579
1.47394001484 1.63882994652 10.9427995682 -0.21367199719 0.245934993029 -0.945442020893 170 181 216 0.0143817001954
0.171838000417 1.36399996281 10.8338003159 0.034292999655 0.26099601388 -0.964730978012 173 190 225 0.0143836000934
1.09020996094 -2.10467004776 9.57711982727 -0.388877987862 0.759917020798 -0.520864009857 140 97 118 0.0143943000585
3.79164004326 0.0998649969697 10.5570001602 0.321040004492 0.349216014147 -0.88033002615 132 84 92 0.01442672126
0.476646989584 1.54491996765 10.8961000443 -0.255046993494 0.130013003945 -0.958148002625 166 177 214 0.0144287003204
7.43612003326 0.094299800694 10.7534999847 -0.650041997433 -0.469164997339 -0.597769975662 136 159 192 0.0144362999126
0.140063002706 -0.458050996065 10.1342000961 0.0313807986677 0.832053005695 -0.553807973862 134 87 96 0.0144411996007
7.40628004074 -0.0553717017174 10.8266000748 -0.203033998609 -0.680126011372 -0.704419016838 84 93 118 0.0144448997453
-0.991838991642 1.11027002335 10.7704000473 -0.115011997521 0.363714993 -0.924382984638 145 156 190 0.0144602004439
1.17560994625 1.89269995689 11.0067996979 -0.2628659904 0.179434999824 -0.948000013828 123 135 148 0.0144640998915
0.310400009155 1.51693999767 10.8880996704 -0.198946997523 0.158342003822 -0.967133998871 162 177 214 0.0144686996937
1.30847001076 1.6630500555 10.8886995316 -0.449128985405 0.288594990969 -0.845574021339 136 145 187 0.0144788995385
0.316637992859 1.26011002064 10.7948999405 0.0495144017041 0.273766994476 -0.960520982742 162 176 213 0.0144790997729
0.396858006716 1.34449994564 10.7981004715 -0.0131983999163 0.210640996695 -0.977474987507 162 174 212 0.0144827002659
5.74616003036 -0.964200019836 10.4764003754 -0.0986052975059 0.340409010649 -0.93509298563 133 91 100 0.0144869424403
5.74882984161 -0.950868010521 10.4714002609 0.0892629995942 0.57810997963 -0.81106197834 142 99 108 0.0144869424403
6.74672985077 0.0732460990548 11.0169000626 -0.472838014364 0.491477012634 -0.731351017952 96 115 140 0.0144900996238
1.60228002071 0.415645986795 10.4982995987 0.294887006283 0.27631598711 -0.914708018303 32 35 47 0.0144913000986
3.41585993767 -1.74618005753 8.95421981812 0.0206336006522 0.288727998734 -0.957189023495 91 115 151 0.0144977997988
6.77129983902 -0.0983078032732 10.966799736 0.305206000805 -0.152759000659 -0.93995398283 133 92 98 0.0144984256476
6.78295993805 -0.0934256985784 10.9596996307 0.349696993828 -0.0238709002733 -0.936559021473 134 92 99 0.0144984256476
-1.19591999054 -0.785999000072 10.2096996307 0.217969998717 0.250111997128 -0.943363010883 136 91 102 0.0144988000393
3.38107991219 -1.76826000214 8.95051002502 -0.0368794985116 0.272282987833 -0.961510002613 132 152 188 0.0144996996969
3.39178991318 -1.74661004543 8.95450973511 -0.270711004734 0.229747995734 -0.93484300375 115 137 173 0.0145027004182
3.40370988846 -1.76654994488 8.94781970978 0.0206335000694 0.288727998734 -0.957189023495 95 116 153 0.0145036997274
1.60885000229 0.446471989155 10.5078001022 0.294856995344 0.27636501193 -0.914703011513 38 40 52 0.014505200088
0.27905601263 1.26011002064 10.7930002213 0.0495184995234 0.273764997721 -0.960520982742 167 180 217 0.0145060997456
1.46291005611 1.27859997749 10.7839002609 0.288060992956 0.65571898222 -0.697892010212 166 180 217 0.0145101509988
3.39198994637 -1.78729999065 8.94211959839 0.0205958001316 0.288715004921 -0.95719397068 110 130 168 0.0145223001018
2.39932990074 -0.557227015495 9.95254039764 -0.531534016132 0.122175000608 -0.83818000555 118 83 97 0.0145364003256
0.350015997887 1.58949005604 10.8833999634 -0.341672986746 0.303256988525 -0.889546990395 165 176 215 0.0145378997549
3.42820000648 -1.7677500248 8.95958042145 0.307550013065 0.314359009266 -0.898104012012 81 88 120 0.0145482998341
2.76072001457 0.0450338982046 10.4174995422 -0.121725998819 0.0581909008324 -0.990857005119 127 84 91 0.0145495319739
2.75904011726 0.0553706996143 10.4275999069 0.0623139999807 0.194183006883 -0.978983998299 134 91 97 0.0145495319739
3.38387989998 0.982405006886 10.8200998306 0.335907995701 0.62577098608 -0.703971982002 149 166 197 0.0145551720634
3.37752008438 0.995311021805 10.8222999573 0.223947003484 0.651441991329 -0.724893987179 147 166 197 0.0145551720634
4.57851982117 1.05173003674 10.8768997192 -0.998674988747 0.0471597984433 0.0206043999642 127 148 175 0.0145605001599
2.87295007706 -0.229800999165 10.3015003204 0.422883987427 0.44854798913 -0.787383973598 147 100 108 0.0145615376532
2.88667988777 -0.229105994105 10.2966995239 0.549551010132 0.339457988739 -0.763387978077 146 99 107 0.0145615376532
3.45406007767 -1.81042003632 8.97058963776 0.29824000597 0.310510993004 -0.902571976185 86 94 124 0.0145619995892
0.98210901022 -2.11983990669 9.56941986084 0.152388006449 0.885125994682 -0.439693003893 150 107 129 0.0145621998236
1.89489996433 0.562345027924 10.4218997955 -0.784830987453 0.518126010895 -0.339978009462 118 75 82 0.0145647004247
1.7118999958 -1.67762005329 9.85229969025 -0.43535399437 0.252431988716 -0.864144027233 128 100 122 0.0145693002269
3.50921988487 -1.66638994217 9.02213001251 0.370979994535 0.417116999626 -0.829690992832 134 139 169 0.0145710995421
3.47714996338 -1.58714997768 9.03044033051 0.421820014715 0.288051009178 -0.859705984592 107 108 139 0.0145742995664
3.43248009682 -1.63379001617 9.00037002563 0.318545013666 0.29544699192 -0.900689005852 41 39 72 0.0145752001554
1.13763999939 1.89356994629 11.0073003769 -0.171838998795 0.212895005941 -0.961845993996 124 136 152 0.0145798996091
0.534395992756 1.50966000557 10.8740997314 -0.248039007187 0.130720004439 -0.959890007973 167 178 215 0.0145805003121
3.50377011299 -1.6271699667 9.03262996674 0.487194985151 0.278488010168 -0.827699005604 149 159 191 0.014580800198
3.46620988846 -1.61374998093 9.01163005829 0.361196994781 0.276580005884 -0.890528023243 78 73 105 0.0145818004385
1.50221002102 -1.53338003159 9.96026039124 -0.223583996296 0.168254002929 -0.960052013397 42 39 72 0.0145821999758
3.49769997597 -1.58714997768 9.04253005981 0.473246991634 0.33299601078 -0.815567970276 145 155 185 0.0145904002711
2.63087010384 1.33609998226 10.9050998688 -0.0267687998712 0.23543600738 -0.971521019936 155 167 202 0.0145957339555
2.63803005219 1.34845995903 10.9020996094 -0.00133138999809 0.387315988541 -0.921945989132 146 160 195 0.0145957339555
3.99743008614 0.878443002701 10.8828001022 0.214557006955 -0.155324995518 -0.964281976223 144 161 194 0.0146059663966
4.01006984711 0.880581021309 10.8758001328 -0.0615961998701 0.071557097137 -0.995532989502 147 163 195 0.0146059663966
3.47500991821 -1.64678001404 9.0110502243 0.440919011831 0.288758009672 -0.849829018116 87 88 119 0.0146136004478
3.51089000702 -1.60697996616 9.04362010956 0.480071008205 0.247703999281 -0.84153097868 145 158 189 0.0146239995956
2.96671009064 0.210814997554 10.1759004593 -0.640276014805 0.248633995652 -0.726791977882 121 76 85 0.0146406004205
7.4534201622 0.0694566965103 10.7537002563 -0.448514014482 -0.319290995598 -0.83479899168 133 155 189 0.0146441999823
2.0435500145 0.928937971592 10.6968002319 0.418090999126 -0.0465256981552 -0.907212972641 137 158 190 0.0146482205018
2.05726003647 0.931460022926 10.7012996674 -0.0665837973356 0.204494997859 -0.976599991322 140 159 191 0.0146482205018
6.17354011536 -1.15400004387 10.3795003891 -0.178556993604 0.00127634999808 -0.983928978443 146 102 106 0.0146493194625
6.17166996002 -1.15492999554 10.3940000534 -0.178025007248 0.00151284004096 -0.984025001526 146 102 106 0.0146493194625
0.524047970772 1.04746997356 10.7052001953 0.0226054992527 0.416056007147 -0.909057974815 152 170 205 0.014650600031
1.48022997379 0.527216017246 10.4736995697 0.327342987061 0.284817010164 -0.900958001614 111 96 127 0.014653599821
-0.949838995934 1.08493995667 10.7197999954 -0.126166000962 0.390740990639 -0.911813020706 135 143 176 0.0146554997191
0.25810199976 1.29033005238 10.8107004166 -0.0570209994912 0.272312998772 -0.96051800251 162 178 215 0.0146583002061
2.06075000763 -1.00294005871 8.8723897934 0.159333005548 0.481224000454 -0.861995995045 123 84 97 0.014688000083
2.06114006042 -1.00320005417 8.87296009064 0.138836994767 0.48333799839 -0.864354014397 123 84 97 0.0146888000891
0.216456994414 1.29110002518 10.8070001602 0.0513793006539 0.261979997158 -0.963705003262 171 185 222 0.0147018004209
-0.052310500294 1.58671998978 10.7960996628 0.449687987566 0.280629992485 -0.84795498848 165 177 214 0.0147023387253
5.51232004166 -1.20738995075 10.1513996124 -0.543223023415 0.436982989311 -0.716906011105 125 113 140 0.014715208672
5.5079498291 -1.2146999836 10.1393995285 -0.311563998461 0.192332997918 -0.930557012558 148 135 161 0.014715208672
7.36644983292 0.186294004321 11.1576004028 0.274286985397 -0.197439998388 -0.941160976887 141 165 197 0.0147176412866
7.35462999344 0.182701006532 11.165599823 -0.161740005016 0.00677970005199 -0.986810028553 140 164 197 0.0147176412866
0.480062991381 0.644523024559 10.5712995529 -0.852059006691 0.114188998938 -0.510839998722 140 97 101 0.0147219998762
-0.0857890993357 -0.137668997049 10.2406997681 0.216697007418 0.756065011024 -0.617582023144 141 92 100 0.0147238997743
0.174738004804 -0.414306998253 10.1808996201 0.0126203000546 0.33912101388 -0.940657973289 135 85 95 0.0147273996845
1.64356994629 0.964914977551 10.6822004318 -0.0355031006038 0.227599993348 -0.973106980324 146 162 196 0.014731682837
1.65202999115 0.970668971539 10.6927995682 0.0029134999495 0.0355226993561 -0.999364972115 147 163 197 0.014731682837
0.495469003916 1.50934004784 10.886300087 -0.255046993494 0.130013003945 -0.958148002625 163 177 212 0.0147460000589
7.40755987167 0.165839999914 11.1284999847 -0.375003993511 -0.131791993976 -0.917607009411 142 165 198 0.0147489001974
2.81833004951 -0.278203010559 10.2472000122 0.0825422033668 0.453483998775 -0.887434005737 135 90 97 0.0147559940815
2.81995010376 -0.290686011314 10.2395000458 0.0818201974034 0.349911004305 -0.933202981949 124 79 86 0.0147559940815
1.50042998791 -1.58070003986 9.88043022156 0.0991424992681 0.137774005532 -0.985489010811 47 48 81 0.0147604998201
-0.0526399984956 -0.498876005411 10.1222000122 0.14447799325 0.465425014496 -0.873215973377 134 85 95 0.0147706000134
-0.752391993999 -0.12012899667 10.2554998398 -0.0514387004077 -0.0723730027676 -0.996050000191 134 86 94 0.0147893996909
0.241592004895 1.26011002064 10.7910003662 0.0495208017528 0.273764014244 -0.960520982742 170 183 221 0.014794100076
-0.430031001568 -0.702971994877 10.1105003357 0.126462996006 0.359771996737 -0.924430012703 142 96 105 0.0147964004427
1.46663999557 1.57053005695 10.9301996231 -0.49856698513 0.476413995028 -0.724196016788 171 183 219 0.0148026002571
0.415172994137 1.31333994865 10.7910995483 -0.0132034001872 0.210639998317 -0.977474987507 162 174 212 0.0148146003485
4.95947980881 -0.821448981762 10.363699913 -0.339760005474 -0.135453999043 -0.930706977844 116 91 117 0.0148270595819
-0.260874986649 -0.123355001211 10.2512998581 -0.0154849998653 0.307601988316 -0.951389014721 144 97 105 0.014836399816
