ply
format ascii 1.0
element vertex 353
property float x
property float y
property float z
property float nx
property float ny
property float nz
property uchar diffuse_red
property uchar diffuse_green
property uchar diffuse_blue
property float psz
end_header
1.28700995445 -0.0930259972811 10.3491001129 0.461988985538 -0.545009970665 -0.699665009975 150 95 127 1.96024775505e-05
1.28700995445 -0.0930455997586 10.3491001129 0.786508977413 -0.122373998165 -0.605332016945 150 95 126 1.96024775505e-05
1.30043005943 -0.108589001 10.3677997589 0.789879024029 -0.0952022001147 -0.605829000473 122 126 180 3.08463240799e-05
1.30040001869 -0.108581997454 10.3677997589 0.787349998951 -0.039278101176 -0.615253984928 122 126 179 3.08463240799e-05
1.38673996925 -0.0461037009954 10.5312995911 0.722760021687 0.344904005527 -0.598881006241 47 24 47 3.38603313139e-05
1.38671994209 -0.0460763983428 10.5312995911 0.722653985023 0.343021988869 -0.600090026855 47 24 47 3.38603313139e-05
1.40350997448 0.019968200475 10.5619001389 0.760218977928 -0.0770044028759 -0.645087003708 139 82 99 0.00020052898617
1.4034999609 0.0199698992074 10.5621004105 0.760222017765 -0.076975800097 -0.645087003708 139 82 99 0.00020052898617
1.37827003002 0.131084993482 10.392999649 0.75063097477 0.260217994452 -0.607321977615 67 57 66 0.00121139502153
1.37811005116 0.132217004895 10.3934001923 0.753992974758 0.249632999301 -0.607599973679 67 57 66 0.00121139502153
1.33528995514 0.0788879990578 10.3059997559 0.185040995479 0.214820995927 -0.958963990211 24 35 63 0.00137197971344
1.33614003658 0.0784894004464 10.3070001602 0.302780002356 0.313059985638 -0.900177001953 25 34 60 0.00137197971344
1.36752998829 0.136343002319 10.3725004196 0.70188999176 0.380607008934 -0.602070987225 37 33 43 0.00139370572288
1.36760997772 0.135087996721 10.3718996048 0.705317974091 0.373787999153 -0.602335989475 37 33 43 0.00139370572288
1.2863099575 -0.106899999082 10.3491001129 0.314965009689 0.306977987289 -0.898087978363 157 97 128 0.00145366915967
1.28492999077 -0.10644300282 10.3491001129 0.786599993706 -0.122382000089 -0.605213999748 159 95 124 0.00145366915967
1.39643001556 -0.0493438988924 10.5410995483 0.722469985485 0.342952996492 -0.600350022316 118 74 94 0.0015776399523
1.28761994839 0.00280356011353 10.3437995911 -0.00192403001711 0.212806001306 -0.977092981339 163 97 117 0.00160127994604
1.29217994213 -0.00493561010808 10.3421001434 -0.00734058022499 0.213649004698 -0.976882994175 155 102 129 0.0016764299944
1.28261995316 -0.0988245010376 10.3250999451 0.392547011375 0.194206997752 -0.898994028568 160 94 123 0.00173671997618
1.31674003601 -0.514505028725 10.2848997116 -0.821532011032 0.150578007102 -0.549920022488 40 37 78 0.00208499003202
1.15371000767 -0.289281994104 9.18793010712 0.624216020107 -0.0327237993479 -0.780566990376 85 55 110 0.00231622997671
1.15638995171 -0.277826011181 9.19186019897 0.360794007778 0.0457741990685 -0.931522011757 86 49 99 0.00234437990002
1.38726997375 0.00824959017336 10.5501003265 0.761454999447 -0.0656645968556 -0.644883990288 72 61 83 0.0029954300262
1.33544003963 0.150672003627 10.3157997131 0.761041998863 0.230324998498 -0.606436014175 31 43 78 0.00321864965372
1.33466994762 0.147651001811 10.3149995804 0.758243024349 0.239095002413 -0.606549024582 33 47 82 0.00321864965372
1.36600005627 0.134529992938 10.3690004349 0.73404699564 0.307980000973 -0.605247020721 41 37 48 0.00336279673502
1.38315999508 -0.055664498359 10.5214996338 0.722760021687 0.344904005527 -0.598881006241 64 55 80 0.00353860249743
1.38229000568 -0.0590222999454 10.5207996368 0.57065397501 0.584150016308 -0.577167987823 63 57 87 0.00353860249743
1.37406003475 0.154679998755 10.3913002014 0.788341999054 -0.0982355028391 -0.607343971729 50 42 54 0.00466022128239
1.37167000771 0.154690995812 10.3872995377 0.690603017807 0.39844301343 -0.603581011295 46 39 53 0.00466022128239
1.32748997211 0.151221007109 10.3224000931 0.588024973869 0.501513004303 -0.634595990181 61 89 128 0.00503810029477
1.32263994217 0.149860993028 10.3222999573 0.203820005059 0.514319002628 -0.833027005196 83 114 154 0.00503810029477
1.33203995228 0.138694003224 10.3156995773 0.722663998604 0.314895004034 -0.615302979946 39 58 97 0.00541294971481
1.32924997807 0.138093993068 10.3111000061 0.660216987133 0.45762398839 -0.595561981201 50 74 114 0.00541294971481
1.33417999744 0.109916001558 10.309800148 0.182299003005 0.21419300139 -0.959628999233 27 39 76 0.00607871217653
1.33210003376 0.110280998051 10.3041000366 0.780673980713 0.0216451995075 -0.624563992023 31 48 87 0.00607871217653
1.39682996273 0.0272898003459 10.5530996323 0.760219991207 -0.0770044028759 -0.645085990429 108 72 91 0.00701165711507
1.39723002911 0.0272288993001 10.5460996628 0.760215997696 -0.0766256004572 -0.645135998726 110 73 92 0.00701165711507
1.37217998505 0.167650997639 10.3884000778 0.789008021355 -0.0940902978182 -0.607134997845 45 38 51 0.00710840756074
1.37513995171 0.163951992989 10.393699646 0.723776996136 0.321987003088 -0.610303997993 53 44 56 0.00710840756074
1.40130996704 -0.101953998208 10.4932003021 0.270052999258 0.189071998 -0.944099009037 146 79 102 0.00784094724804
1.40415000916 -0.094689399004 10.4940004349 0.0948887988925 0.537126004696 -0.838147997856 148 78 100 0.00784094724804
1.38054001331 0.162000000477 10.3991003036 0.789967000484 0.0584844015539 -0.61035400629 73 61 72 0.00788276921958
1.33687996864 0.13395999372 10.3114995956 0.752188026905 0.26057100296 -0.605241000652 28 36 71 0.0079672113061
1.34430003166 0.0788879990578 10.3077001572 0.185040995479 0.214820995927 -0.958963990211 35 35 51 0.00819965824485
1.36883997917 0.182881996036 10.3752002716 0.704289019108 0.370339006186 -0.605660974979 36 24 42 0.00826654396951
1.36779999733 0.189803004265 10.3795995712 0.729798018932 0.314911007881 -0.606815993786 36 25 46 0.00826654396951
1.32688999176 0.0785010010004 10.3048000336 0.239170998335 -0.129766002297 -0.962266981602 41 70 113 0.00849402602762
1.37197995186 0.192555993795 10.3865003586 0.705263972282 0.370411008596 -0.604481995106 44 38 56 0.00852477736771
1.38362002373 -0.0556243993342 10.5129003525 0.722360014915 0.343436986208 -0.600206971169 65 56 81 0.00861167069525
1.38653004169 0.166832000017 10.3950996399 0.622779011726 0.209698006511 -0.75377202034 85 70 79 0.00867375172675
1.34633004665 0.102587997913 10.3374004364 0.183822005987 0.214184999466 -0.95934098959 37 36 53 0.00884214323014
1.3537800312 0.104635000229 10.3331003189 0.517592012882 0.630029022694 -0.578930974007 33 30 42 0.00884214323014
1.378469944 0.175541996956 10.3991003036 0.782998979092 0.120241001248 -0.610291004181 64 55 68 0.00885110348463
1.37696003914 0.184095993638 10.3973999023 0.785515010357 0.101090997458 -0.610530018806 56 47 62 0.00885110348463
1.33702003956 0.118111997843 10.3116998672 0.541953027248 0.384883999825 -0.747094988823 29 37 69 0.00887970346957
1.31947994232 0.118111997843 10.3094997406 0.272846996784 0.0727448016405 -0.959303021431 88 116 161 0.00894165597856
1.31507003307 0.110365003347 10.3101997375 -0.15472599864 -0.00714620016515 -0.987932026386 101 126 169 0.00894165597856
1.32390999794 0.110365003347 10.3087997437 -0.154722005129 -0.00722423987463 -0.987932026386 65 96 142 0.00894171465188
1.3283200264 0.118111997843 10.3080997467 0.384918987751 0.0945975035429 -0.918089985847 48 73 114 0.00894171465188
1.3323700428 0.126249998808 10.3106002808 0.705587983131 0.189733996987 -0.682749986649 35 53 91 0.00897731725127
1.33070003986 0.0864747986197 10.3079996109 0.302778989077 0.313059985638 -0.900177001953 30 49 88 0.00897869374603
1.33480000496 0.0943866968155 10.3069000244 0.302810996771 0.313450992107 -0.900030016899 25 34 67 0.00897869374603
1.32934999466 0.102375000715 10.3079004288 0.302810996771 0.313450992107 -0.900030016899 38 58 101 0.00906030274928
1.32544994354 0.0944209992886 10.3059997559 0.302747994661 0.313362002373 -0.900081992149 53 81 128 0.00906030274928
1.36983001232 0.176282003522 10.3816995621 0.718107998371 0.343867003918 -0.605042994022 38 35 49 0.00931562390178
1.33238005638 0.0705062970519 10.3030004501 0.73562502861 0.299674987793 -0.607495009899 25 41 73 0.00936569646001
1.32121002674 0.0865390971303 10.3092002869 0.302594006062 0.31292501092 -0.900286018848 71 108 156 0.00950498133898
1.36872005463 0.144589006901 10.3772001266 0.690603017807 0.39844301343 -0.603581011295 42 36 49 0.00956556852907
1.32014000416 0.102375000715 10.3048000336 0.30245500803 0.31470900774 -0.89971101284 86 119 167 0.00963851250708
1.31638002396 0.0943887978792 10.3007001877 0.371867001057 0.143880993128 -0.917068004608 94 127 171 0.00973270926625
1.34349000454 0.157336995006 10.3210000992 0.734085977077 0.227463006973 -0.639827013016 35 37 63 0.00979294534773
1.33828997612 0.165112003684 10.3239002228 0.0907486975193 0.39616099 -0.913685977459 30 39 70 0.00979294534773
1.3624099493 0.195268005133 10.3734998703 0.704245984554 0.372927010059 -0.604121983051 33 27 51 0.00980434659868
1.35316002369 0.0948726981878 10.3322000504 0.561492025852 0.566796004772 -0.602885007858 33 30 43 0.00982331112027
1.30163002014 -0.00448706001043 10.3494997025 0.571386992931 -0.426775991917 -0.700985014439 126 119 155 0.00989770423621
1.29873001575 0.00476254010573 10.3514995575 0.577041983604 -0.432981997728 -0.692494988441 137 112 147 0.00989770423621
1.37927997112 0.201528996229 10.407699585 0.717253983021 0.134861007333 -0.683636009693 63 50 67 0.00997385382652
1.38323998451 0.19291600585 10.4107999802 0.489156991243 -0.091882199049 -0.867341995239 79 64 79 0.00997385382652
1.33736002445 0.181270003319 10.3350000381 0.0115157999098 0.795617997646 -0.605688989162 33 48 78 0.0100228516385
1.33220005035 0.173467993736 10.3313999176 -0.0355184003711 0.438663989305 -0.897948980331 51 72 108 0.0100228516385
1.32734000683 0.181270003319 10.3353996277 -0.229092001915 0.761986017227 -0.605718016624 71 98 138 0.0100244227797
1.3397500515 0.127083003521 10.3183002472 0.669386982918 0.4235239923 -0.610368013382 31 36 65 0.0100885694847
1.37430000305 0.0857464969158 10.355799675 0.497363001108 0.633135974407 -0.593101024628 58 50 57 0.0101840645075
1.37378001213 0.0759406015277 10.353099823 0.497253000736 0.632643997669 -0.593717992306 55 47 52 0.0101840645075
1.37327003479 0.0661329030991 10.3501996994 0.284328013659 0.619476020336 -0.731715023518 53 45 52 0.0102402018383
1.33855998516 0.0476998016238 10.30189991 0.548747003078 0.0504501983523 -0.834465026855 28 28 52 0.0103098144755
1.33750998974 0.0578855983913 10.3030996323 0.54907399416 0.052314799279 -0.834134995937 29 30 55 0.0103098144755
1.3215700388 0.13999299705 10.3194999695 -0.0515940003097 0.644703984261 -0.762688994408 87 114 157 0.0103131933138
1.30671000481 0.0144014004618 10.3414001465 0.57528501749 -0.430238008499 -0.695659995079 112 128 171 0.0103983459994
1.30912005901 0.00515432003886 10.3454999924 -0.258607000113 -0.758243978024 -0.598487973213 101 125 169 0.0103983459994
1.38670003414 0.137077003717 10.4083995819 0.508167982101 0.071777202189 -0.858262002468 111 80 92 0.0104385968298
1.38815999031 0.12674100697 10.4083995819 0.709933996201 0.174193993211 -0.682385981083 106 75 87 0.0104385968298
1.39305996895 -0.0979413017631 10.4882001877 0.548793971539 0.0853608027101 -0.831587970257 118 77 116 0.0104482220486
1.29655003548 0.0139945996925 10.3438997269 0.577041983604 -0.432981997728 -0.692494988441 141 101 135 0.0104708336294
1.35330998898 0.0849061980844 10.3193998337 0.49873700738 0.638363003731 -0.58630502224 30 26 39 0.0105258179829
1.35290002823 0.0750985965133 10.3156003952 0.633695006371 0.299567013979 -0.713225007057 32 28 39 0.0105258179829
1.37521004677 0.0954514965415 10.3515996933 0.498854011297 0.638611018658 -0.585936009884 67 51 62 0.0106139080599
1.39549005032 0.0141473999247 10.5535001755 0.760222017765 -0.0769760981202 -0.645087003708 114 77 97 0.010672993958
1.37363994122 0.0858843997121 10.3667001724 0.498998999596 0.637103021145 -0.587451994419 56 43 53 0.0109213339165
1.38595998287 0.105614997447 10.3905000687 0.742595016956 0.284292012453 -0.606407999992 91 72 80 0.0112945428118
1.38215994835 0.0965725034475 10.3849000931 0.736880004406 0.299465000629 -0.6060770154 84 70 78 0.0112945428118
1.39016997814 0.156025007367 10.3950996399 0.652010023594 0.344426006079 -0.675466001034 108 76 85 0.0114035177976
1.36443996429 0.0752632021904 10.3162002563 0.498697012663 0.63849902153 -0.586192011833 37 34 39 0.0115566886961
1.36417996883 0.09516210109 10.3418998718 0.498854011297 0.638611018658 -0.585936009884 35 32 40 0.0116725582629
1.36524999142 0.104797996581 10.3353996277 0.498885989189 0.638315975666 -0.586229979992 37 26 36 0.0116725582629
1.37790000439 -0.010843699798 10.5455999374 0.764280021191 -0.0700350999832 -0.641071021557 42 45 63 0.0118090072647
1.38787996769 -0.0141142001376 10.5509996414 0.7225689888 0.342896014452 -0.600262999535 56 42 57 0.0118090072647
1.29443001747 -0.0141209997237 10.3494997025 0.571385979652 -0.42677500844 -0.700985014439 141 101 133 0.012007817626
1.32875001431 0.161125004292 10.3313999176 -0.656844973564 0.183540999889 -0.731346011162 59 85 125 0.0127731151879
1.32265996933 0.169480994344 10.3389997482 -0.525358021259 0.119562998414 -0.842438995838 83 112 153 0.0128322541714
1.39121997356 0.114243999124 10.4083995819 0.735126972198 0.249349996448 -0.630406975746 110 75 87 0.0128661841154
1.39305996895 -0.0889265984297 10.4975004196 0.155759006739 0.709537029266 -0.687238991261 116 78 115 0.0129521889612
1.29298996925 -0.100836999714 10.3584003448 0.786612987518 -0.122382998466 -0.605194985867 142 112 153 0.0129567291588
1.38100004196 0.118568003178 10.3905000687 0.742595970631 0.284292012453 -0.606407999992 77 67 75 0.0130528127775
1.38645005226 0.146642997861 10.3866996765 0.510017991066 0.0780000984669 -0.856620013714 92 74 83 0.0131308538839
1.28910005093 -0.0796400010586 10.3491001129 0.777667999268 -0.0647746995091 -0.625329017639 159 107 139 0.0131420763209
1.29018998146 -0.066543199122 10.3491001129 0.794228971004 -0.0495628006756 -0.605593025684 158 102 135 0.0131420763209
1.39056003094 0.0345296002924 10.5374002457 0.33278799057 0.728101015091 -0.599268019199 55 38 54 0.0131689161062
1.39855003357 0.0403520017862 10.5460996628 0.760215997696 -0.0766255035996 -0.645135998726 124 79 95 0.0131689161062
1.40216004848 0.00683803018183 10.5621995926 0.760222017765 -0.0769760981202 -0.645087003708 146 83 103 0.0131755685434
1.40615999699 0.0462788008153 10.5621004105 0.760222017765 -0.0769755020738 -0.645087003708 148 85 101 0.0132214697078
1.40482997894 0.0331243984401 10.5621004105 0.760222017765 -0.076975800097 -0.645087003708 144 84 102 0.0132214697078
1.37935996056 0.00231627002358 10.5412998199 0.764523983002 -0.0689399018884 -0.640897989273 54 60 83 0.0132371261716
1.3010699749 -0.095227599144 10.3677997589 0.786167025566 -0.122464001179 -0.605758011341 126 126 190 0.0133711928502
1.29925000668 -0.060656901449 10.3584003448 0.788785994053 -0.116359002888 -0.603554010391 148 132 182 0.0134534575045
1.30678999424 -0.054673999548 10.3677997589 0.77151799202 -0.199095994234 -0.604252994061 101 108 172 0.0134534575045
1.36443996429 0.0851683020592 10.3269996643 0.498697012663 0.63849902153 -0.586192011833 36 33 40 0.0134797059
1.28103995323 -0.0852700024843 10.339799881 0.777918994427 -0.141817003489 -0.612152993679 164 99 123 0.0135015062988
1.29103004932 -0.0530580990016 10.3491001129 0.794228971004 -0.0495628006756 -0.605593025684 154 96 131 0.0135018099099
1.28354001045 -0.0593592002988 10.339799881 0.273755013943 -0.376621007919 -0.884993970394 171 95 124 0.0135018099099
1.28437995911 -0.0458742007613 10.339799881 -0.432076990604 -0.289629012346 -0.854062974453 173 99 126 0.0135018099099
1.29186999798 -0.0395730994642 10.3491001129 0.794228971004 -0.0495628006756 -0.605593025684 160 104 137 0.0135018099099
1.29716002941 -0.0740408971906 10.3584003448 0.786127984524 -0.122464999557 -0.605809986591 148 129 175 0.0135206338018
1.29254996777 -0.114473998547 10.358499527 0.790006995201 -0.0952045992017 -0.605660974979 148 115 153 0.0135215856135
1.29507994652 -0.0874269008636 10.3584003448 0.786189973354 -0.122469998896 -0.605727016926 144 121 165 0.0135236559436
1.30667996407 -0.116161003709 10.3770999908 0.789439022541 -0.0935505032539 -0.606657981873 98 109 176 0.0135237146169
1.30827999115 -0.102682001889 10.3770999908 0.789439022541 -0.0935505032539 -0.606657981873 93 107 177 0.0135280592367
1.31307005882 -0.0622508004308 10.3770999908 0.789394974709 -0.0935475975275 -0.606716990471 66 71 136 0.0135403638706
1.3146699667 -0.0487751998007 10.3770999908 0.789384007454 -0.0935467034578 -0.606729984283 39 44 100 0.0135419396684
1.28469002247 -0.120347000659 10.3491001129 0.779663980007 -0.161413997412 -0.605036973953 170 104 134 0.013544225134
1.31626999378 -0.0353001989424 10.3770999908 0.789358973503 -0.0935444012284 -0.606763005257 32 36 90 0.0135696623474
1.31148004532 -0.0757274031639 10.3770999908 0.789422988892 -0.0935501977801 -0.606679022312 76 89 161 0.0135700758547
1.30988001823 -0.0892044007778 10.3770999908 0.789422988892 -0.0935501977801 -0.606679022312 89 102 178 0.0135716451332
1.30315995216 -0.0818177983165 10.3677997589 0.786167025566 -0.122464001179 -0.605758011341 128 136 202 0.0135716898367
1.30158996582 -0.0462989993393 10.3584003448 0.786475002766 -0.120116002858 -0.605829000473 134 127 176 0.0136209363118
1.32956004143 0.0398152992129 10.2819004059 0.585466980934 -0.521246016026 -0.620911002159 30 43 80 0.0136281652376
1.32037997246 0.0434327982366 10.2725000381 0.154512003064 -0.333418011665 -0.930031001568 79 108 151 0.0136281652376
1.32441997528 0.052437800914 10.2819004059 0.737533986568 0.300525009632 -0.604754984379 56 80 124 0.0136289335787
1.32831001282 0.0614897012711 10.2936000824 0.737466990948 0.300682991743 -0.60475897789 34 55 95 0.0136430431157
1.3191100359 0.0651127025485 10.2841997147 0.737460017204 0.300675004721 -0.604770004749 88 122 166 0.0136430431157
1.29472005367 -0.0230436995625 10.3599004745 0.617775976658 -0.437860012054 -0.653171002865 147 108 141 0.0137067409232
1.32020998001 0.0182801000774 10.267999649 0.684273004532 -0.426607012749 -0.591418981552 81 111 155 0.013815484941
1.32752001286 0.0300031993538 10.267999649 0.684273004532 -0.426607012749 -0.591418981552 39 57 96 0.013815484941
1.40125000477 -0.00777126010507 10.5700998306 0.722304999828 0.342435002327 -0.600844025612 136 81 96 0.0138526158407
1.39759004116 -0.0173631999642 10.5607995987 0.7225689888 0.342896014452 -0.600262999535 121 74 87 0.0138526158407
1.39149999619 -0.00453688995913 10.5607995987 0.7225689888 0.342896014452 -0.600262999535 91 64 81 0.0138570610434
1.37112998962 0.122387997806 10.3763999939 0.695623993874 0.393545985222 -0.60102301836 43 39 47 0.0139260180295
1.36624002457 0.166819006205 10.3720998764 0.718106985092 0.343867003918 -0.605042994022 35 25 42 0.0139495627955
1.32143998146 0.0298752002418 10.2875995636 0.590821027756 -0.562447011471 -0.578432023525 69 101 143 0.0140435518697
1.39280998707 -0.0589011013508 10.5312995911 0.5706589818 0.584150016308 -0.577163994312 109 76 100 0.0141292996705
1.39033997059 -0.036517098546 10.5410995483 0.722653985023 0.342936992645 -0.600138008595 74 45 62 0.0141606489196
1.40366995335 -0.0301900003105 10.5607995987 0.722437977791 0.342956006527 -0.600386977196 140 79 89 0.0141725055873
1.40005004406 -0.0397669002414 10.5509996414 0.722656011581 0.342936009169 -0.600135982037 143 87 104 0.0141725055873
1.39395999908 -0.026940099895 10.5509996414 0.722593009472 0.342893987894 -0.600235998631 98 62 74 0.0141733633354
1.38425004482 -0.0236910004169 10.5410995483 0.722593009472 0.342893987894 -0.600235998631 40 32 48 0.0141984503716
1.3929400444 -0.0694205984473 10.5207996368 0.5706589818 0.584150016308 -0.577163994312 115 80 112 0.0148478550836
1.39305996895 -0.0799179971218 10.5102996826 0.165548995137 0.806492984295 -0.567592978477 128 90 126 0.0148478550836
1.40197002888 -0.0587791018188 10.5657997131 0.570469021797 0.584210991859 -0.577288985252 139 80 97 0.0149515355006
1.402099967 -0.0693228021264 10.5551996231 0.570618987083 0.584230005741 -0.577121973038 141 78 98 0.0149515355006
1.35051000118 0.176539003849 10.3290996552 0.0115109998733 0.795617997646 -0.605688989162 36 36 56 0.0151696661487
1.33736002445 0.190470993519 10.3472003937 0.0115152997896 0.795617997646 -0.605688989162 37 51 84 0.0152060976252
1.35051000118 0.18574899435 10.3411998749 0.0115160001442 0.795617997646 -0.605688989162 35 35 60 0.0152060976252
1.30869996548 0.0787698999047 10.2906999588 -0.0673201978207 -0.253367990255 -0.965025007725 113 123 157 0.018361421302
1.38540995121 0.054903998971 10.5255002975 0.760212004185 -0.0765208974481 -0.64515298605 44 39 48 0.0205523241311
1.38501000404 0.041647400707 10.5097999573 0.465386986732 0.673768997192 -0.573976993561 35 29 41 0.0205523241311
1.28376996517 -0.498802006245 10.348400116 -0.388209998608 0.768737971783 -0.508266985416 150 160 221 0.0217467993498
1.27496004105 -0.513293981552 10.3250999451 -0.0304978005588 0.68347299099 -0.729337990284 161 125 183 0.022109799087
1.29739999771 -0.498721987009 10.3381004333 -0.387436002493 0.777660012245 -0.49511501193 61 89 158 0.0221951995045
1.29739999771 -0.489300012589 10.352399826 -0.387068986893 0.777020990849 -0.496403008699 59 84 151 0.0222580991685
1.28376996517 -0.489380002022 10.3626003265 -0.387362986803 0.776561975479 -0.496890991926 149 150 214 0.0222900994122
1.27496004105 -0.521946012974 10.3197002411 0.132491007447 0.657589972019 -0.741634011269 171 136 194 0.0227291006595
1.28376996517 -0.517790019512 10.3226995468 0.0367223992944 0.525479972363 -0.850013017654 153 159 221 0.0227506998926
1.34276998043 0.144378006458 10.285900116 0.237363994122 0.736207008362 -0.633764982224 37 38 68 0.0227653998882
1.28376996517 -0.508225023746 10.3340997696 -0.406367003918 0.701142013073 -0.585888028145 150 159 221 0.0228025000542
1.37948000431 0.0875004008412 10.3861999512 0.780830979347 0.138014003634 -0.609308004379 61 63 64 0.0230480991304
1.38671004772 0.0836844965816 10.3797998428 0.729485988617 0.29457500577 -0.617313027382 71 68 69 0.0235776007175
1.15250003338 -0.31659001112 9.18737983704 -0.322270989418 -0.443616986275 -0.836269021034 75 53 109 0.0237617008388
1.12179005146 -0.425916999578 9.19264030457 0.765061974525 -0.207246005535 -0.609695971012 162 110 144 0.0243928004056
1.39725005627 -0.146748006344 10.4891004562 -0.835493981838 0.00587802007794 -0.549467980862 145 79 102 0.0318384990096
1.13446998596 -0.220981001854 9.13269042969 0.779367029667 -0.155543997884 -0.606953978539 167 124 164 0.0329967997968
1.1350300312 -0.180684000254 9.13998031616 0.639025986195 -0.000523991009686 -0.769185006618 169 123 166 0.0330417007208
1.13317000866 -0.235256999731 9.14140033722 0.731536984444 -0.224077001214 -0.64392799139 174 127 166 0.03305510059
1.1258200407 -0.199957996607 9.15085029602 -0.736971020699 0.0224101003259 -0.675553023815 168 105 133 0.0330898985267
1.12432003021 -0.246467992663 9.15085983276 -0.090644299984 -0.539889991283 -0.836840987206 151 85 108 0.0330906994641
1.12786996365 -0.288628011942 9.15974998474 -0.0817994996905 -0.195163995028 -0.977352976799 161 99 129 0.0331518016756
1.11939001083 -0.447546988726 9.15851974487 0.658007025719 -0.0418212004006 -0.751850008965 171 106 144 0.0331524014473
1.1171900034 -0.458898991346 9.15851974487 0.774605989456 -0.149949997663 -0.614410996437 170 103 140 0.0331550016999
1.11790001392 -0.468854993582 9.12917995453 0.770262002945 -0.139596000314 -0.622262001038 174 109 149 0.0331563986838
1.12891995907 -0.471666008234 9.15507030487 0.772276997566 -0.144575998187 -0.618615984917 170 144 204 0.0331605002284
1.13242995739 -0.182831004262 9.15882015228 0.795608997345 -0.025677299127 -0.605265974998 169 117 156 0.0331625007093
1.1343100071 -0.273988008499 9.1667804718 0.618723988533 0.0334514006972 -0.784896016121 176 142 188 0.0332091003656
1.13568997383 -0.27003800869 9.16681003571 0.795868992805 -0.0256865993142 -0.604923009872 175 151 199 0.0332126989961
1.13924002647 -0.163539007306 9.14029026031 0.794475972652 0.0639645978808 -0.603917002678 166 142 190 0.0332438983023
1.14382004738 -0.206311002374 9.17479991913 0.795845985413 -0.0256861001253 -0.604954004288 170 156 226 0.0332594998181
1.14269995689 -0.241202995181 9.17481040955 0.795789003372 -0.0256850998849 -0.605028986931 174 165 224 0.033264901489
1.14232003689 -0.252819001675 9.17481040955 0.795835018158 -0.0256859008223 -0.604968011379 170 171 230 0.0332658998668
1.12834000587 -0.354568988085 9.17654037476 0.766156971455 -0.207329005003 -0.608290970325 156 110 157 0.0332827009261
1.13215994835 -0.171727001667 9.15085029602 -0.736674010754 -0.0995211973786 -0.668884992599 165 113 147 0.03329949826
1.15234005451 -0.130897000432 9.18282032013 0.795912027359 -0.0256874002516 -0.604866981506 81 95 161 0.0333210006356
1.14759004116 -0.284240990877 9.18282985687 0.793640971184 0.085081897676 -0.602407991886 120 120 182 0.0333231016994
1.15271997452 -0.119287997484 9.18282032013 0.795912027359 -0.0256874002516 -0.604866981506 84 92 158 0.0333241000772
1.14935004711 -0.223957002163 9.18282985687 0.795944988728 -0.0256880000234 -0.604822993279 124 120 187 0.0333255007863
1.15120995045 -0.165755003691 9.18280029297 0.795822024345 -0.0256856996566 -0.604984998703 101 118 193 0.0333264991641
1.14821994305 -0.258803009987 9.18282985687 0.795944988728 -0.0256880000234 -0.604822993279 116 120 185 0.0333274006844
1.14859998226 -0.247187003493 9.18282985687 0.795944988728 -0.0256880000234 -0.604822993279 122 125 190 0.0333291999996
1.14785003662 -0.270420014858 9.18282985687 0.795944988728 -0.0256880000234 -0.604822993279 124 123 187 0.0333293005824
1.12353003025 -0.395889997482 9.18457984924 0.765920996666 -0.207306995988 -0.608596026897 175 119 165 0.033334299922
1.13582003117 -0.350526988506 9.1845998764 0.766156971455 -0.207329005003 -0.608290970325 173 156 220 0.0333351008594
1.138890028 -0.339201003313 9.1845998764 0.766094982624 -0.207322999835 -0.608371973038 162 160 226 0.0333395004272
1.13205003738 -0.194379001856 9.15882015228 0.795670986176 -0.0256827995181 -0.605184018612 163 111 146 0.0333429984748
1.12158000469 -0.436195999384 9.15851974487 0.687991023064 0.0661996006966 -0.72269397974 171 113 153 0.0333571992815
1.15761995316 -0.296416014433 9.18661022186 -0.252550005913 0.0407545007765 -0.966724991798 97 53 99 0.0333659015596
1.1571199894 -0.1717980057 9.19083976746 0.795928001404 -0.0256877001375 -0.604844987392 40 50 119 0.0333827994764
1.15787005424 -0.148536995053 9.19083976746 0.795912027359 -0.0256874002516 -0.604866981506 36 55 121 0.0333870016038
1.15637004375 -0.195060998201 9.19083976746 0.795928001404 -0.0256877001375 -0.604844987392 41 38 104 0.0333872996271
1.15599000454 -0.20669400692 9.19083976746 0.795940995216 -0.0256878994405 -0.604829013348 49 43 104 0.0333874002099
1.15487003326 -0.241576001048 9.19083976746 0.795944988728 -0.0256880000234 -0.604822993279 72 49 101 0.0333903990686
1.13102996349 -0.391842007637 9.19264984131 0.765920996666 -0.207306995988 -0.608596026897 164 140 200 0.0333913005888
1.16008996964 -0.270747005939 9.19363975525 0.47431999445 -0.0253414008766 -0.879988014698 102 54 95 0.0334069989622
1.13239002228 -0.410515010357 9.20071983337 0.76576602459 -0.207294002175 -0.608796000481 149 139 205 0.0334463007748
1.12926995754 -0.461237996817 9.17432975769 0.774605989456 -0.149949997663 -0.614410996437 170 135 202 0.0334535986185
1.15383994579 -0.331266999245 9.20024013519 0.583294987679 -0.184132993221 -0.791113972664 79 49 95 0.0334603004158
1.12802994251 -0.472124993801 9.16456031799 0.774694979191 -0.15511199832 -0.613016009331 169 138 198 0.0334784984589
1.15526998043 -0.349700987339 9.2088098526 0.766157984734 -0.207329005003 -0.608290016651 92 45 99 0.0335155017674
1.15197002888 -0.142545998096 9.18282032013 0.795928001404 -0.0256877001375 -0.604844987392 85 102 171 0.0335197001696
1.15861999989 -0.125278994441 9.19083976746 0.795910000801 -0.0256874002516 -0.604869008064 39 51 116 0.0335799008608
1.15411996841 -0.264807999134 9.19083976746 0.795944988728 -0.0256880000234 -0.604822993279 81 55 113 0.033585101366
1.1552400589 -0.229960992932 9.19083976746 0.795944988728 -0.0256880000234 -0.604822993279 77 54 109 0.0335864014924
1.16032004356 -0.284907996655 9.1930398941 0.360792994499 0.0457741990685 -0.931522011757 103 53 91 0.0336004011333
1.14776003361 -0.353756994009 9.20073032379 0.766157984734 -0.207329005003 -0.608290016651 88 76 146 0.033670399338
1.14469003677 -0.36508500576 9.20073032379 0.766157984734 -0.207329005003 -0.608290016651 111 109 178 0.033673800528
1.15389001369 -0.33110499382 9.20073032379 0.766143023968 -0.207326993346 -0.608309984207 80 49 94 0.033673800528
1.1521999836 -0.361048012972 9.2088098526 0.766157984734 -0.207329005003 -0.608290016651 81 53 112 0.033705201
1.1429899931 -0.395078986883 9.2088098526 0.766084015369 -0.207322001457 -0.608385026455 106 117 195 0.0337059013546
1.14607000351 -0.383727997541 9.2088098526 0.766084015369 -0.207322001457 -0.608385026455 79 85 157 0.0337302014232
1.15356004238 -0.30355399847 9.18737983704 -0.253509998322 0.0401121005416 -0.966500997543 91 58 114 0.0342886000872
1.15664994717 -0.325668007135 9.17889022827 -0.794928014278 0.204707995057 -0.571124970913 88 51 94 0.0353352986276
1.11781001091 -0.468935996294 9.12963008881 0.770474016666 -0.141615003347 -0.621541976929 174 109 149 0.0357354991138
1.12544000149 -0.211508005857 9.15085029602 0.170873001218 0.2004339993 -0.964690983295 150 89 111 0.0357960984111
1.12356996536 -0.269571989775 9.15085983276 0.26798799634 -0.574333012104 -0.773513972759 173 101 129 0.0357977002859
1.12432003021 -0.238462999463 9.14568996429 -0.155849993229 -0.610004007816 -0.776920974255 167 99 121 0.0358182005584
1.12618994713 -0.188409999013 9.15085983276 -0.792433977127 0.196916997433 -0.577297985554 151 87 118 0.0358632989228
1.13089001179 -0.156651005149 9.15085029602 -0.803673028946 -0.067640401423 -0.591214001179 155 100 131 0.0358650013804
1.12620997429 -0.187123999 9.15085029602 -0.805203020573 0.123883999884 -0.579914987087 154 90 121 0.0358663983643
1.12855005264 -0.171890005469 9.15085029602 -0.80535697937 0.123503997922 -0.579782009125 166 105 136 0.0358697995543
1.13019001484 -0.252438992262 9.15882968903 0.79572302103 -0.0256839003414 -0.605114996433 162 111 144 0.0358714014292
1.12980997562 -0.263990998268 9.15882968903 0.795701026917 -0.0256834998727 -0.605144023895 161 109 145 0.0358718000352
1.13168001175 -0.205928996205 9.15882015228 0.795760989189 -0.0256845001131 -0.605064988136 165 115 152 0.0358736999333
1.1282299757 -0.278988987207 9.16176986694 -0.776413977146 0.264272004366 -0.572138011456 157 95 124 0.0358875989914
1.13756000996 -0.211909994483 9.16679954529 0.795845985413 -0.0256861001253 -0.604954004288 172 142 196 0.0359394997358
1.13605999947 -0.258421003819 9.16681003571 0.79572302103 -0.0256839003414 -0.605114996433 169 146 195 0.0359399989247
1.13554000854 -0.285522013903 9.1667804718 0.706821978092 -0.242800995708 -0.664417028427 171 141 190 0.0359404012561
1.13680994511 -0.235230997205 9.16681003571 0.795736014843 -0.0256840009242 -0.605099022388 179 150 201 0.0359404012561
1.13201999664 -0.295796006918 9.1667804718 -0.0365932993591 -0.654407978058 -0.755255997181 158 118 160 0.0359413996339
1.13644003868 -0.246804997325 9.16681003571 0.795863986015 -0.025686500594 -0.604929983616 170 141 193 0.0359415002167
1.13531005383 -0.281634986401 9.16681003571 0.795939028263 -0.0256878994405 -0.604830980301 169 138 185 0.0359425991774
1.12213003635 -0.465745002031 9.16641998291 0.774605989456 -0.149949997663 -0.614410996437 168 111 158 0.0359498001635
1.12181997299 -0.476173013449 9.14725971222 0.772276997566 -0.144575998187 -0.618615984917 157 103 147 0.0359511002898
1.12433004379 -0.454391986132 9.16641998291 0.774605989456 -0.149949997663 -0.614410996437 173 119 170 0.0359518006444
1.13201999664 -0.303925991058 9.17381954193 0.0957183986902 -0.421249002218 -0.901880025864 172 135 180 0.0359928011894
1.14607000351 -0.13654500246 9.17481040955 0.795928001404 -0.0256877001375 -0.604844987392 111 112 169 0.0360000990331
1.14607000351 -0.136525005102 9.17481040955 0.795814990997 -0.0256855990738 -0.604993999004 111 112 169 0.0360027998686
1.14232003689 -0.252799004316 9.17481040955 0.795929014683 -0.0256877001375 -0.604843974113 170 171 230 0.0360042005777
1.14195001125 -0.264414995909 9.17481040955 0.795912027359 -0.0256874002516 -0.604866981506 164 167 223 0.0360096991062
1.14645004272 -0.124895997345 9.17481040955 0.795807003975 -0.0256853997707 -0.605005025864 112 113 165 0.0360096991062
1.14344000816 -0.217923998833 9.17479991913 0.795608997345 -0.0256817992777 -0.605265974998 172 160 227 0.0360120013356
1.14495003223 -0.171352997422 9.17481040955 0.795695006847 -0.0256833005697 -0.605153024197 162 165 224 0.0360122993588
1.14093995094 -0.279110014439 9.17479038239 0.793640971184 0.085081897676 -0.602407991886 169 166 223 0.0360148996115
1.14156997204 -0.276033014059 9.17481040955 0.795939028263 -0.0256878994405 -0.604830980301 169 169 225 0.03601520136
1.15158998966 -0.154155999422 9.18282032013 0.795928001404 -0.0256877001375 -0.604844987392 96 116 189 0.0360684990883
1.15008997917 -0.200681000948 9.18280982971 0.795940995216 -0.0256878994405 -0.604829013348 111 110 192 0.0360758006573
1.15084004402 -0.177416995168 9.18282032013 0.795928001404 -0.0256877001375 -0.604844987392 116 125 200 0.0360774993896
1.14746999741 -0.282038003206 9.18282985687 0.795953989029 -0.0256881993264 -0.604812026024 121 121 184 0.0360786989331
1.1489700079 -0.235571995378 9.18282985687 0.795944988728 -0.0256880000234 -0.604822993279 130 123 186 0.0360789000988
1.15197002888 -0.142526000738 9.18282032013 0.795912027359 -0.0256874002516 -0.604866981506 85 101 171 0.0360798016191
1.14971005917 -0.212313994765 9.18280982971 0.795939981937 -0.0256878994405 -0.604830980301 119 118 191 0.036080300808
1.14709997177 -0.293657004833 9.18282985687 0.795953989029 -0.0256881993264 -0.604812026024 115 118 177 0.0360868982971
1.13139998913 -0.343241989613 9.1765499115 0.766094982624 -0.207322999835 -0.608371973038 176 142 189 0.0360913984478
1.16050994396 -0.310683995485 9.17889022827 -0.746473014355 0.0610269010067 -0.66261100769 99 48 84 0.0361290983856
1.14875996113 -0.277826011181 9.1888999939 0.794067025185 -0.0356872007251 -0.606781005859 103 98 162 0.0361321009696
1.120470047 -0.407200992107 9.18457984924 0.765751004219 -0.20729200542 -0.608814001083 158 101 135 0.036147300154
1.15750002861 -0.160166993737 9.19083976746 0.795928001404 -0.0256877001375 -0.604844987392 37 51 118 0.0361482016742
1.15824997425 -0.136907994747 9.19083976746 0.795912027359 -0.0256874002516 -0.604866981506 40 53 121 0.0361484996974
1.15673995018 -0.183429002762 9.19083976746 0.795928001404 -0.0256877001375 -0.604844987392 48 51 117 0.036150701344
1.1556199789 -0.218327000737 9.19083976746 0.795944988728 -0.0256880000234 -0.604822993279 60 45 102 0.0361519008875
1.14566004276 -0.317901998758 9.18957042694 0.792352020741 -0.0618105009198 -0.606923997402 120 124 189 0.0362030006945
1.14152002335 -0.310696989298 9.19023990631 -0.266315996647 -0.0639166980982 -0.961763978004 161 169 233 0.0362049005926
1.14558005333 -0.30355399847 9.18947029114 -0.253464013338 0.0401626005769 -0.966511011124 132 136 197 0.0362068004906
1.12489998341 -0.414501994848 9.19264984131 0.765895009041 -0.207304999232 -0.608630001545 156 115 156 0.0362176001072
1.12653005123 -0.44304099679 9.16641998291 0.774605989456 -0.149949997663 -0.614410996437 167 123 174 0.0362176001072
1.12796998024 -0.403171002865 9.19264984131 0.765920996666 -0.207306995988 -0.608596026897 159 127 180 0.0362179018557
1.14469003677 -0.36510398984 9.20073032379 0.766148984432 -0.207328006625 -0.608300983906 111 109 178 0.0362237989902
1.14025998116 -0.357805013657 9.19266033173 0.766157984734 -0.207329005003 -0.608290016651 160 157 229 0.036227401346
1.14638996124 -0.335153013468 9.19266033173 0.766157984734 -0.207329005003 -0.608290016651 100 97 164 0.0362321995199
1.14331996441 -0.346477985382 9.19266033173 0.766157984734 -0.207329005003 -0.608290016651 144 141 214 0.036233201623
1.14927005768 -0.324211001396 9.19266033173 0.747386991978 -0.196959003806 -0.634522974491 81 68 128 0.0362366996706
1.12931001186 -0.421862989664 9.20071983337 0.765730977058 -0.207291007042 -0.608839988708 153 130 186 0.0362815000117
1.12624001503 -0.433212995529 9.20071983337 0.765727996826 -0.207289993763 -0.60884398222 169 131 179 0.0362830013037
1.13855004311 -0.387784987688 9.20073032379 0.766085028648 -0.207322001457 -0.608385026455 154 159 234 0.036288600415
1.14162003994 -0.376433998346 9.20073032379 0.766156971455 -0.207329005003 -0.608291983604 143 148 220 0.0362996011972
1.14911997318 -0.372415989637 9.2088098526 0.766157984734 -0.207329005003 -0.608290016651 68 60 121 0.0363008007407
1.15857994556 -0.337704986334 9.20522975922 0.381123006344 -0.337484002113 -0.860725998878 101 51 85 0.0363411009312
1.13991999626 -0.406450986862 9.2088098526 0.765973985195 -0.207312002778 -0.608528017998 144 152 232 0.0363638997078
1.15832996368 -0.338393986225 9.20880031586 0.766059994698 -0.207175001502 -0.608466029167 101 52 86 0.0363774001598
1.30192005634 -0.519221007824 10.3106002808 -0.815831005573 0.1808450073 -0.549286007881 51 65 131 0.040915299207
1.31289994717 -0.497451007366 10.304599762 -0.372229993343 0.781032979488 -0.501429975033 22 28 71 0.0410384014249
1.28305995464 -0.133818998933 10.3491001129 0.789211988449 -0.107104003429 -0.604709982872 156 91 120 0.0411086007953
1.31169998646 -0.488846004009 10.3367996216 -0.385488003492 0.77859801054 -0.495160996914 20 31 75 0.0411381982267
1.29879999161 -0.122060999274 10.3677997589 0.790032982826 -0.0952050983906 -0.605627000332 135 129 180 0.0412539988756
1.29111003876 -0.524424016476 10.3233995438 -0.806038022041 0.22569000721 -0.547143995762 118 143 218 0.0414805002511
1.31058001518 -0.48022300005 10.3738002777 -0.386963993311 0.777215003967 -0.496181994677 20 32 76 0.0418239012361
1.30904996395 -0.472653001547 10.3905000687 -0.273494005203 0.767669975758 -0.579554975033 23 31 80 0.0418889001012
1.39772999287 -0.174915999174 10.4958000183 -0.827537000179 0.126043006778 -0.547079026699 148 81 100 0.0422196984291
1.39078998566 -0.164802998304 10.508600235 -0.826250016689 0.131696000695 -0.547693014145 131 83 116 0.0423395000398
1.38798999786 -0.182373002172 10.508600235 -0.828840017319 0.0748073011637 -0.554462015629 131 88 121 0.0428479984403
1.37472999096 -0.157023996115 10.5291996002 -0.753013014793 0.122630998492 -0.646476984024 78 84 139 0.0442731007934
1.31754994392 -0.499799013138 10.3126001358 -0.233309999108 0.467377007008 -0.85271602869 29 31 71 0.0454481989145
1.31289994717 -0.506709992886 10.2902002335 -0.230097994208 0.46556699276 -0.85457700491 28 29 72 0.0456710010767
1.30814003944 -0.529543995857 10.2980003357 -0.815563976765 0.18513700366 -0.548250973225 25 32 84 0.0457388982177
1.3082100153 -0.502905011177 10.3106002808 -0.749068975449 0.215122997761 -0.626591980457 28 38 88 0.0458445996046
1.29739999771 -0.508108019829 10.3233995438 -0.784008026123 0.302451014519 -0.542083978653 76 103 177 0.0459324009717
1.29093003273 -0.127945005894 10.358499527 0.790032982826 -0.0952050983906 -0.605627000332 148 110 147 0.0461307987571
1.2842400074 -0.479662001133 10.3706998825 0.0969642996788 0.873920977116 -0.47629699111 140 134 201 0.0463935993612
1.29612004757 -0.471374988556 10.4095001221 0.790247023106 -0.0861912965775 -0.606697022915 54 64 133 0.0466304011643
1.39467000961 -0.108282998204 10.4882001877 0.0715987980366 -0.59551602602 -0.800145983696 129 76 111 0.0466304011643
1.3969899416 -0.133844003081 10.4891004562 -0.684575021267 -0.0135151995346 -0.728816986084 142 80 105 0.0466304011643
1.39467000961 -0.117333002388 10.4948997498 -0.451846003532 0.0490451008081 -0.890747010708 140 84 119 0.0466304011643
1.38987994194 -0.126236006618 10.4968996048 -0.680737018585 0.100823998451 -0.725556015968 113 75 117 0.0466304011643
1.40052998066 -0.157345995307 10.4958000183 -0.825747013092 0.0777271017432 -0.558659017086 168 92 114 0.0466304011643
1.39358997345 -0.147233992815 10.508600235 -0.826250016689 0.131696000695 -0.547693014145 134 79 107 0.0466304011643
1.38171994686 -0.189147993922 10.4520998001 -0.825847029686 0.00993490964174 -0.563807010651 117 88 130 0.0466304011643
1.35584998131 0.207660004497 10.3736000061 0.713286995888 0.375061988831 -0.592073023319 29 37 59 0.0466304011643
1.38682997227 -0.139222994447 10.5165996552 -0.683686971664 0.132918000221 -0.717568993568 107 80 123 0.0466304011643
1.38403999805 -0.152171000838 10.5212001801 -0.684436023235 0.137474998832 -0.715994000435 99 82 128 0.0466304011643
1.37891995907 -0.190698996186 10.51060009 -0.823423981667 0.0827089995146 -0.561366021633 101 83 135 0.0466304011643
1.37327003479 0.0569472983479 10.342499733 0.284328013659 0.619476020336 -0.731715023518 30 33 34 0.0466304011643
1.36930000782 0.112356998026 10.3491001129 0.697003006935 0.393451988697 -0.599484980106 27 32 36 0.0466304011643
1.36945998669 0.147650003433 10.3274002075 0.790929973125 -0.161627992988 -0.590174973011 28 32 41 0.0466304011643
1.38619995117 -0.199937000871 10.5122003555 -0.829298019409 0.0309596005827 -0.557949006557 137 92 128 0.0466304011643
1.37884998322 -0.178025007248 10.5213003159 -0.68443697691 0.137474998832 -0.715994000435 97 89 140 0.0466304011643
1.38145005703 -0.165097996593 10.5213003159 -0.684436023235 0.137474998832 -0.715994000435 92 82 128 0.0466304011643
