ply
format ascii 1.0
element vertex 737
property float x
property float y
property float z
property float nx
property float ny
property float nz
property uchar diffuse_red
property uchar diffuse_green
property uchar diffuse_blue
end_header
-1.59317 0.73007 15.3532 -0.49001 -0.347655 -0.799391 137 90 98
-1.49936 0.727867 15.3284 -0.25432 -0.195673 -0.947119 136 90 98
-1.47097 0.727366 15.3517 -0.215689 -0.0642821 -0.974344 138 91 98
-1.45615 0.754263 15.3466 -0.21569 -0.0642821 -0.974344 146 98 106
-1.3451 0.735337 15.349 0.241897 0.388563 -0.889103 145 98 106
-1.18882 0.750255 15.3373 0.124448 -0.240688 -0.962591 140 94 101
-1.14277 0.751117 15.3177 -0.0163658 -0.213651 -0.976773 136 90 96
-1.11961 0.783037 15.3236 -0.142766 -0.0555455 -0.988197 139 91 97
-1.07548 0.78339 15.3419 -0.469099 -0.0648466 -0.880762 137 88 95
-1.04841 0.785606 15.3451 -0.46778 -0.0656148 -0.881406 137 88 97
-1.04821 0.786861 15.3541 -0.153681 -0.0195753 -0.987927 137 88 97
-1.02119 0.788455 15.3526 -0.375469 0.057055 -0.925077 136 88 96
-0.991829 0.801349 15.3895 0.234216 0.697436 -0.677294 146 92 101
-0.917217 0.785379 15.3556 -0.437969 -0.0908469 -0.894388 138 89 96
-0.890527 0.785377 15.3425 -0.437969 -0.0908469 -0.894388 141 92 99
-0.836589 0.786875 15.3191 -0.438336 -0.090202 -0.894274 141 92 98
-0.863885 0.785381 15.3295 -0.437969 -0.090847 -0.894388 141 92 99
-0.863185 0.786877 15.3322 -0.438335 -0.0902018 -0.894274 142 93 100
-0.541099 0.81339 15.3013 -0.520762 0.0486981 -0.852312 153 106 113
-0.47068 0.821851 15.26 -0.523814 0.0543619 -0.850097 137 92 98
-0.471456 0.822829 15.2616 -0.519449 0.0494646 -0.853069 135 91 97
-0.446702 0.834739 15.246 -0.523813 0.0543618 -0.850097 138 92 98
-0.408166 0.833829 15.2561 -0.526607 0.0596736 -0.848012 138 91 98
-0.401042 0.819991 15.285 -0.140285 0.298943 -0.943903 145 97 103
-0.40058 0.819865 15.2836 -0.134351 0.293852 -0.946362 145 97 103
-0.35367 0.845726 15.2862 -0.140286 0.298943 -0.943903 146 97 103
1.84299 1.03247 15.1408 -0.296459 -0.177098 -0.938482 94 103 139
2.0096 1.08249 15.4278 -0.295682 0.289491 -0.910366 94 96 138
2.03641 1.08374 15.411 -0.30325 0.295063 -0.906078 89 90 128
2.46359 1.11063 15.1886 -0.621677 -0.101805 -0.776629 134 85 92
3.79443 1.24867 15.3669 0.395915 0.262501 -0.879969 81 76 97
4.46508 1.28328 15.2305 0.456826 0.0419974 -0.888564 18 16 31
-2.65676 0.664829 15.4029 0.171257 0.562857 -0.808618 128 86 96
-2.62144 0.674684 15.4172 0.171257 0.562857 -0.808618 131 92 100
-2.58989 0.656375 15.4112 0.171257 0.562857 -0.808618 131 88 95
-2.55149 0.667683 15.409 0.169058 0.562231 -0.809516 135 93 98
-2.50745 0.67459 15.369 0.151486 0.51972 -0.840799 145 103 109
-2.49034 0.677017 15.3568 -0.10341 0.100209 -0.989578 146 105 110
-2.46573 0.681708 15.3851 -0.11685 0.0983709 -0.988266 147 105 110
-2.41074 0.685544 15.4013 -0.120791 0.101737 -0.987451 142 101 109
-2.38027 0.686327 15.4084 -0.120727 0.102257 -0.987405 127 88 99
-2.35436 0.685026 15.388 -0.12106 0.100268 -0.987568 117 83 97
-2.26733 0.688113 15.41 -0.12077 0.102619 -0.987362 138 95 106
-2.25247 0.711473 15.3664 -0.132328 0.0509389 -0.989896 125 80 90
-2.22409 0.711466 15.3626 -0.132311 0.050944 -0.989898 126 81 91
-2.24168 0.684311 15.3498 -0.132313 0.0509671 -0.989897 140 96 106
-2.159 0.72254 15.3998 -0.393046 -0.518444 -0.759428 125 80 88
-2.11439 0.702572 15.388 -0.289 -0.501932 -0.815195 127 84 92
-2.07566 0.717905 15.3914 0.39435 -0.265032 -0.879913 120 77 83
-2.0295 0.710881 15.3722 -0.0603278 -0.683813 -0.72716 123 77 84
-1.9841 0.713216 15.367 0.294964 -0.0246237 -0.955191 125 79 86
-1.96973 0.739228 15.3719 0.294969 -0.0246375 -0.955189 137 91 97
-1.94153 0.72986 15.3943 -0.226627 -0.0762648 -0.970991 129 84 91
-1.91263 0.728262 15.3838 -0.226808 -0.0757543 -0.970989 129 83 91
-1.85823 0.730644 15.3904 -0.226523 -0.076597 -0.970989 126 82 88
-1.88581 0.730105 15.3921 -0.226968 -0.0762152 -0.970915 124 80 87
-1.82986 0.730981 15.3696 -0.223997 -0.0857242 -0.970812 132 88 94
-1.80073 0.730924 15.3821 -0.226588 -0.0764173 -0.970988 135 89 96
-1.81454 0.754573 15.3749 -0.220734 -0.0772445 -0.97227 139 93 101
-1.77288 0.730888 15.3754 -0.226588 -0.0764188 -0.970988 141 94 101
-1.70657 0.737232 15.4113 -0.123912 -0.381891 -0.915863 138 93 102
-1.60727 0.763169 15.3781 -0.127232 -0.380775 -0.915873 138 92 100
-1.51489 0.778449 15.3584 -0.205635 0.0786507 -0.975463 131 83 91
-1.47038 0.778839 15.3482 -0.215689 -0.0642784 -0.974344 130 81 89
-1.47488 0.755324 15.3682 -0.205731 -0.0836272 -0.975029 145 97 104
-1.44188 0.778929 15.3433 -0.215696 -0.0643012 -0.974341 133 84 92
-1.39837 0.764429 15.3669 0.0812085 0.680917 -0.727844 139 91 98
-1.35673 0.783811 15.4011 -0.105725 0.0482396 -0.993225 128 81 89
-1.18248 0.807207 15.3331 -0.144511 0.0167886 -0.989361 138 91 96
-1.19663 0.782541 15.3348 -0.144511 0.0167886 -0.989361 130 83 91
-1.16427 0.78382 15.3451 -0.153188 -0.0212474 -0.987969 135 87 94
-1.09085 0.809388 15.3442 -0.153664 -0.0195694 -0.98793 146 97 103
-1.0895 0.811338 15.3622 -0.467358 -0.0657437 -0.881621 146 97 103
-1.06259 0.811367 15.3484 -0.467352 -0.0657389 -0.881624 145 96 102
-1.06273 0.809388 15.3399 -0.153666 -0.0195701 -0.987929 146 97 103
-1.03589 0.811668 15.3365 -0.46778 -0.0656148 -0.881406 145 96 103
-1.03421 0.811531 15.3514 -0.153678 -0.0195745 -0.987927 145 96 103
-1.00928 0.811668 15.3224 -0.46778 -0.0656147 -0.881406 142 90 98
-0.946034 0.836769 15.3645 -0.437968 -0.0908467 -0.894388 133 83 90
-0.904991 0.810671 15.3448 -0.438455 -0.0895576 -0.89428 147 98 105
-0.9229 0.837491 15.3371 0.237442 0.325789 -0.915141 130 81 89
-0.931618 0.811062 15.36 -0.437968 -0.0908468 -0.894388 142 93 101
-0.878229 0.810971 15.334 -0.437969 -0.0908469 -0.894388 149 100 107
-0.8923 0.837492 15.345 0.237442 0.325789 -0.915141 130 82 89
-0.850906 0.812422 15.3236 -0.438336 -0.0902019 -0.894274 148 99 106
-0.865237 0.837995 15.328 -0.438335 -0.0902018 -0.894274 133 85 92
-0.837371 0.841406 15.3396 -0.4384 -0.0902074 -0.894241 133 85 92
-0.585172 0.856583 15.3525 -0.515296 -0.00697353 -0.856984 147 100 107
0.962418 0.984613 15.1174 0.507921 0.137011 -0.850438 77 86 120
3.21228 1.20001 15.2001 0.415785 0.212513 -0.884286 132 86 92
3.6488 1.25346 15.249 0.256892 0.0522005 -0.965029 73 74 103
3.96682 1.29761 15.3437 -0.199193 -0.0109539 -0.979899 126 83 87
3.99654 1.29729 15.3443 -0.122128 0.202853 -0.971563 132 88 92
-2.55752 0.694692 15.3959 -0.377274 0.253567 -0.890712 140 98 103
-2.50458 0.702547 15.359 -0.116511 0.0998233 -0.98816 132 90 98
-2.45219 0.70762 15.3938 -0.116861 0.0983984 -0.988262 132 90 97
-2.42365 0.709498 15.3971 -0.119148 0.10143 -0.987682 131 90 97
-2.36556 0.711319 15.4092 -0.12073 0.102256 -0.987405 116 77 88
-2.35084 0.736327 15.41 -0.120736 0.102254 -0.987404 130 87 98
-2.35016 0.735657 15.4047 -0.10915 -0.128916 -0.98563 129 87 97
-2.33718 0.711731 15.409 -0.120033 0.102218 -0.987494 117 77 89
-2.32199 0.736314 15.4063 -0.120742 0.102252 -0.987404 127 86 96
-2.32212 0.73638 15.407 -0.119906 0.102178 -0.987513 127 86 96
-2.29187 0.736397 15.4035 -0.119911 0.102176 -0.987513 130 87 97
-2.26644 0.736189 15.3692 0.00462161 0.749009 -0.662544 137 91 102
-2.23946 0.737692 15.3773 -0.126318 0.0536254 -0.990539 138 93 102
-2.21308 0.73989 15.3912 -0.128169 0.0521471 -0.990381 140 94 103
-2.159 0.75125 15.3802 -0.393046 -0.518444 -0.759427 135 90 97
-2.10653 0.747717 15.3935 0.100486 -0.766413 -0.63444 137 92 100
-2.08007 0.758617 15.3687 -0.185153 -0.680181 -0.709275 131 85 92
-2.02667 0.739083 15.3532 0.294965 -0.024623 -0.955191 138 90 96
-2.02603 0.76691 15.3765 0.18811 -0.100956 -0.976946 126 79 86
-1.99818 0.739082 15.362 0.294965 -0.0246235 -0.955191 134 89 95
-1.98417 0.765626 15.3705 0.294963 -0.0246551 -0.955191 127 82 89
-1.98378 0.76504 15.3664 0.294964 -0.0246306 -0.955191 127 82 89
-1.95342 0.762359 15.354 0.297916 -0.0322106 -0.954049 130 85 92
-1.90591 0.761922 15.449 -0.222216 -0.0654497 -0.972798 140 89 98
-1.87534 0.760104 15.4187 -0.22439 -0.0723314 -0.971812 133 87 95
-1.86171 0.784986 15.4137 -0.224389 -0.0723311 -0.971812 127 82 89
-1.82892 0.779293 15.3762 -0.220734 -0.0772444 -0.972271 122 78 85
-1.80017 0.779562 15.3718 0.00693991 -0.239 -0.970995 129 82 89
-1.68009 0.784629 15.3867 -0.123905 -0.381899 -0.915861 130 83 91
-1.65225 0.786111 15.3694 -0.127211 -0.380794 -0.915868 135 88 97
-1.623 0.786096 15.3648 -0.126863 -0.376206 -0.91781 139 92 101
-1.56497 0.787715 15.3689 -0.127208 -0.380793 -0.915868 138 91 98
-1.59423 0.787713 15.373 -0.127208 -0.380793 -0.915868 139 92 100
-1.55169 0.811364 15.3572 -0.127208 -0.380793 -0.915868 141 95 102
-1.52244 0.811363 15.3532 -0.127207 -0.380793 -0.915868 140 94 101
-1.50868 0.804468 15.3407 -0.190176 0.0700244 -0.97925 143 97 104
-1.45636 0.804915 15.3553 -0.215458 -0.0642293 -0.974398 142 92 99
-1.42897 0.80762 15.3694 -0.215667 -0.0641975 -0.974354 142 94 102
-1.40147 0.810346 15.3835 -0.351064 -0.0655082 -0.934057 143 96 103
-1.32641 0.831363 15.3384 -0.21976 0.0797113 -0.972292 129 81 88
-1.15767 0.83338 15.3659 -0.463164 -0.0654152 -0.883855 128 80 85
-1.10403 0.834801 15.3482 -0.46327 -0.0654491 -0.883797 131 81 87
-1.13092 0.833378 15.3519 -0.463165 -0.0654152 -0.883855 130 81 87
-1.07687 0.834023 15.3416 -0.153664 -0.0195692 -0.98793 131 82 88
-1.07667 0.83746 15.354 -0.467359 -0.0657394 -0.88162 132 83 89
-1.04874 0.834023 15.3372 -0.15366 -0.0195682 -0.98793 131 82 88
-1.05 0.837706 15.342 -0.46778 -0.0656147 -0.881406 132 83 88
-0.994817 0.846112 15.3747 -0.461331 -0.0588866 -0.885272 137 86 94
-0.953523 0.837483 15.3291 0.237442 0.325788 -0.915141 134 83 90
-0.940453 0.863389 15.3417 0.237442 0.325788 -0.915141 141 89 97
-0.909778 0.863586 15.3512 0.237993 0.326604 -0.914707 138 87 94
-0.752116 0.859789 15.3576 -0.521881 0.566159 -0.638047 146 96 102
-0.505704 0.888394 15.3501 -0.224771 0.0694319 -0.971935 140 92 99
1.01535 1.02239 15.2148 0.479602 -0.247649 -0.841815 104 104 147
1.52895 1.07557 15.2249 -0.405056 -0.384517 -0.829503 138 88 96
4.0638 1.33053 15.3581 -0.355933 -0.115636 -0.927329 126 84 88
4.22053 1.34711 15.22 -0.369988 -0.104531 -0.923137 133 92 97
-2.63536 0.743797 15.3941 -0.372028 0.253836 -0.892839 148 107 113
-2.59499 0.718143 15.3851 -0.382859 0.255914 -0.887652 132 90 98
-2.57667 0.746182 15.3853 -0.382859 0.255915 -0.887653 154 110 117
-2.60784 0.746384 15.4017 -0.372357 0.253771 -0.892721 150 107 113
-2.57011 0.722774 15.4095 -0.377279 0.253565 -0.890711 136 94 101
-2.55151 0.750587 15.407 0.0511604 0.420314 -0.905936 152 110 118
-2.53287 0.722393 15.395 0.0511599 0.420313 -0.905936 132 90 99
-2.48955 0.726728 15.3471 -0.135493 0.1022 -0.985493 134 94 104
-2.50302 0.751583 15.3455 -0.136161 0.101736 -0.985449 136 95 106
-2.469 0.73547 15.4134 -0.121407 0.100879 -0.987463 132 93 103
-2.4537 0.761472 15.4142 -0.121407 0.100879 -0.987463 131 91 102
-2.43905 0.735468 15.4097 -0.121409 0.100879 -0.987463 129 88 99
-2.33648 0.761717 15.4136 -0.120784 0.10227 -0.987397 126 82 91
-2.30778 0.76379 15.4169 -0.119871 0.102256 -0.987509 126 80 90
-2.27574 0.76197 15.3997 -0.117052 0.103811 -0.987685 132 85 95
-2.21882 0.769574 15.4191 -0.42273 -0.572568 -0.702471 130 86 94
-2.18844 0.774281 15.395 -0.393102 -0.518571 -0.759312 126 83 90
-2.11103 0.775776 15.3603 -0.185153 -0.680182 -0.709275 127 80 87
-2.10293 0.774009 15.3743 -0.0470299 -0.712318 -0.700279 127 79 86
-2.08168 0.784307 15.3412 -0.0553969 -0.695822 -0.716075 130 84 91
-2.05443 0.76691 15.3711 0.18811 -0.100956 -0.976946 124 79 86
-2.00009 0.787378 15.3325 0.295081 -0.0246698 -0.955154 132 86 94
-1.96929 0.79095 15.3703 0.294964 -0.0246306 -0.955191 129 86 93
-1.96699 0.787378 15.3428 0.295081 -0.0246697 -0.955154 129 86 93
-1.92001 0.786347 15.4374 -0.223008 -0.0672785 -0.972492 123 78 86
-1.91902 0.784669 15.4334 -0.222939 -0.0656563 -0.972619 123 78 86
-1.89056 0.786347 15.4306 -0.223009 -0.0672787 -0.972492 126 82 89
-1.84809 0.809856 15.4087 -0.224388 -0.0723307 -0.971812 140 94 101
-1.8163 0.807364 15.3939 0.00789178 -0.237203 -0.971428 137 89 96
-1.78583 0.803599 15.3659 0.00693756 -0.239001 -0.970995 137 90 95
-1.66921 0.812446 15.3816 -0.124647 -0.377134 -0.917733 136 91 98
-1.63948 0.811368 15.3695 -0.12721 -0.380794 -0.915868 141 95 103
-1.65546 0.835036 15.3618 -0.127209 -0.380794 -0.915868 126 80 86
-1.6102 0.811368 15.3654 -0.127209 -0.380794 -0.915868 144 98 105
-1.62618 0.835036 15.3578 -0.127209 -0.380794 -0.915868 126 79 86
-1.58094 0.811364 15.3613 -0.127208 -0.380793 -0.915868 144 97 104
-1.56765 0.835014 15.3496 -0.127208 -0.380793 -0.915868 128 81 87
-1.5394 0.83907 15.3751 -0.13562 -0.388938 -0.911227 126 79 86
-1.47111 0.832273 15.3771 -0.215666 -0.0641972 -0.974355 128 81 88
-1.44324 0.832274 15.3709 -0.215667 -0.0641973 -0.974355 128 81 88
-1.41548 0.832923 15.3695 -0.215666 -0.0642007 -0.974354 129 81 89
-1.42975 0.857587 15.371 -0.215665 -0.0642004 -0.974355 144 94 101
-1.40218 0.859992 15.382 -0.375119 0.0341858 -0.926346 140 92 99
-1.38761 0.832921 15.3633 -0.215665 -0.0642004 -0.974355 128 81 89
-1.37271 0.859963 15.3582 -0.215664 -0.0642 -0.974355 142 94 101
-1.35706 0.832921 15.3565 -0.215664 -0.0642 -0.974355 126 80 86
-1.34487 0.859963 15.352 -0.215663 -0.0641997 -0.974355 142 94 101
-1.31193 0.857719 15.3471 -0.220725 0.0789426 -0.972136 139 91 99
-1.14455 0.865081 15.3973 -0.572751 0.0696852 -0.816762 138 89 95
-1.11518 0.861314 15.3689 -0.26241 -0.141085 -0.954587 138 89 95
-1.09057 0.865401 15.3725 -0.560881 0.17831 -0.808466 141 92 97
-1.0907 0.860827 15.3586 -0.153661 -0.0195681 -0.98793 141 91 97
-1.06412 0.863581 15.3454 -0.467358 -0.0657392 -0.881621 143 93 99
-1.06207 0.863517 15.3734 -0.155758 -0.0195851 -0.987601 142 93 99
-1.02186 0.893972 15.3565 -0.2976 -0.429116 -0.852815 133 83 89
-0.982146 0.872203 15.3664 -0.461331 -0.0588865 -0.885272 144 94 101
-0.965866 0.900881 15.3818 -0.363426 -0.375449 -0.852619 135 86 92
1.51755 1.10092 15.2436 0.00138526 0.189416 -0.981896 143 95 102
2.3218 1.2088 15.2555 0.408919 0.0788661 -0.909156 141 94 99
2.68335 1.23079 15.2029 0.396046 -0.189662 -0.89843 111 79 99
2.77723 1.23528 15.244 0.558359 -0.218133 -0.800408 70 69 100
2.91023 1.27323 15.371 -0.0766206 -0.262654 -0.961843 98 98 128
3.95673 1.34586 15.3261 -0.125403 -0.609622 -0.78271 126 84 89
-2.55849 0.774008 15.3855 -0.382858 0.255915 -0.887653 130 89 97
-2.52192 0.781125 15.3802 -0.116828 0.0928624 -0.988801 133 90 100
-2.46882 0.788311 15.4186 -0.121415 0.100877 -0.987463 121 80 91
-2.40483 0.784453 15.3818 -0.118945 0.100849 -0.987766 126 84 94
-2.34968 0.786367 15.4059 -0.118903 0.102595 -0.987591 125 83 92
-2.29044 0.78815 15.4027 -0.117064 0.103818 -0.987683 128 84 92
-2.24858 0.793039 15.4179 -0.422729 -0.572568 -0.702471 134 90 98
-2.19277 0.808413 15.4049 -0.424077 -0.573017 -0.701292 135 90 97
-2.16372 0.814145 15.3826 -0.424078 -0.573017 -0.701292 135 89 96
-2.13092 0.794533 15.3737 -0.191378 -0.680354 -0.707455 135 90 97
-2.09962 0.800347 15.3557 -0.0575078 -0.675915 -0.734733 136 91 97
-2.05059 0.795998 15.3274 -0.0553969 -0.695822 -0.716075 138 91 97
-2.01849 0.82588 15.3632 -0.084487 -0.702352 -0.706798 125 81 88
-1.98906 0.813949 15.3938 -0.0864488 -0.702619 -0.706296 131 88 97
-1.83447 0.834709 15.4037 -0.224387 -0.072331 -0.971812 130 82 89
-1.70417 0.868959 15.431 -0.11131 -0.33872 -0.93428 137 90 97
-1.64213 0.858657 15.3501 -0.127208 -0.380793 -0.915868 136 88 95
-1.61318 0.85955 15.3524 -0.127159 -0.380758 -0.91589 136 88 95
-1.58389 0.859678 15.3495 -0.127066 -0.38059 -0.915973 135 87 94
-1.55439 0.85862 15.338 -0.127207 -0.380793 -0.915869 138 90 96
-1.52591 0.852397 15.3366 -0.13466 -0.334029 -0.932894 137 91 98
-1.41593 0.887699 15.4016 -0.375115 0.0341858 -0.926348 133 84 92
-1.35913 0.884588 15.3536 -0.215662 -0.0641994 -0.974355 131 83 91
-1.3313 0.884589 15.3474 -0.215662 -0.0641994 -0.974355 129 81 89
-1.33144 0.887041 15.3645 -0.215737 -0.0643217 -0.974331 129 81 88
-0.918862 0.927394 15.3908 -0.342084 0.602855 -0.720794 146 97 103
-0.885237 0.919399 15.3681 -0.342083 0.602855 -0.720795 144 95 102
0.879065 1.07565 15.0688 0.389795 -0.0265802 -0.920518 137 101 111
0.98868 1.10262 15.1429 0.438894 -0.00545743 -0.898522 61 66 100
1.87173 1.19594 15.1825 0.413235 -0.12996 -0.901303 64 66 102
2.36079 1.24611 15.2698 -0.470946 0.0345159 -0.881487 127 82 87
2.74016 1.25821 15.2271 0.386039 -0.288522 -0.876201 79 78 104
3.95038 1.38892 15.2785 -0.0792671 -0.0796173 -0.993669 123 81 87
-2.60473 0.802466 15.4123 -0.293836 0.114948 -0.948919 138 94 101
-2.57174 0.802924 15.4055 -0.375851 0.255415 -0.890786 136 93 101
-2.54014 0.802109 15.3857 -0.382857 0.255915 -0.887653 138 96 105
-2.50591 0.804946 15.3719 -0.116846 0.0928635 -0.988799 135 94 105
-2.3892 0.810568 15.3832 -0.11895 0.100843 -0.987766 134 89 99
-2.36367 0.811788 15.4042 -0.118893 0.102593 -0.987593 132 90 100
-2.33694 0.815789 15.4202 -0.117153 0.103448 -0.987711 130 88 97
-2.3466 0.83664 15.3847 -0.116316 0.0870039 -0.989394 122 78 87
-2.31206 0.835379 15.3596 -0.369165 -0.585563 -0.721688 127 81 91
-2.30446 0.813605 15.4003 -0.117174 0.103805 -0.987671 133 90 98
-2.27406 0.813605 15.3967 -0.117177 0.103804 -0.987671 133 90 98
-2.2515 0.826167 15.4304 -0.423987 -0.573192 -0.701203 136 87 93
-2.19325 0.837676 15.3857 -0.423614 -0.573197 -0.701425 129 81 88
-2.2223 0.831934 15.408 -0.423743 -0.573195 -0.701348 132 83 89
-2.16372 0.842819 15.3592 -0.424077 -0.573017 -0.701292 130 83 89
-2.13495 0.82601 15.387 -0.201832 -0.672882 -0.711683 128 83 89
-2.10293 0.825761 15.3254 -0.0571865 -0.671231 -0.739039 124 80 86
-2.11858 0.84213 15.3435 -0.700977 -0.223453 -0.677274 128 84 89
-2.12876 0.853327 15.3744 -0.243242 -0.653039 -0.717198 132 87 92
-2.05657 0.840034 15.3438 -0.0341496 -0.548759 -0.835283 129 84 91
-2.00917 0.868032 15.3707 0.06723 -0.403539 -0.912489 140 95 102
-1.98906 0.839671 15.3682 -0.0864491 -0.702619 -0.706295 127 82 89
-1.73329 0.86894 15.4344 -0.111308 -0.33872 -0.93428 139 93 99
-1.68973 0.890367 15.4034 -0.111985 -0.338625 -0.934234 127 80 87
-1.66071 0.890374 15.4 -0.111983 -0.338625 -0.934234 126 78 85
-1.58708 0.909624 15.3697 -0.113668 -0.340292 -0.933424 145 99 105
-1.55496 0.909625 15.3658 -0.113667 -0.340291 -0.933425 138 92 99
-1.52182 0.905091 15.3309 -0.11306 -0.342486 -0.932695 138 90 97
-1.48497 0.908592 15.3644 0.0236236 0.14968 -0.988452 134 87 95
-1.37339 0.909229 15.3551 -0.215661 -0.0641992 -0.974356 135 86 94
-1.34572 0.911711 15.366 -0.215736 -0.0643214 -0.974331 136 87 95
-1.31785 0.911712 15.3599 -0.215736 -0.0643215 -0.974331 139 90 98
-1.29007 0.91539 15.3786 -0.214404 -0.0642821 -0.974628 140 91 100
-1.27639 0.936379 15.349 -0.215734 -0.0643209 -0.974331 134 84 91
-0.987438 0.938077 15.4003 -0.237374 0.56946 -0.787 142 93 98
0.0260305 1.01225 15.1033 -0.384793 -0.0729281 -0.920117 125 89 108
0.0813924 1.01989 15.1 0.413484 -0.126533 -0.901676 87 94 129
3.29831 1.3741 15.3114 -0.351283 -0.268285 -0.897008 143 96 101
3.34978 1.35857 15.2562 0.0653351 -0.0385409 -0.997119 130 83 91
-2.54762 0.825994 15.3686 -0.370239 0.253985 -0.893541 128 84 94
-2.49289 0.832694 15.3895 -0.319775 0.230492 -0.919031 123 82 93
-2.44361 0.857856 15.3666 -0.319861 0.230291 -0.919051 134 90 101
-2.436 0.836227 15.3934 -0.318344 0.230592 -0.919502 119 77 87
-2.41314 0.857445 15.3532 -0.65233 0.048607 -0.756375 128 86 96
-2.37846 0.83801 15.4087 -0.118895 0.102592 -0.987592 119 76 86
-2.34144 0.856901 15.3571 -0.369163 -0.585563 -0.721689 140 93 103
-2.25537 0.848896 15.329 -0.422922 -0.572673 -0.70227 139 91 98
-2.22707 0.85982 15.3749 -0.423803 -0.573191 -0.701315 139 92 100
-2.19263 0.865654 15.358 -0.424077 -0.573017 -0.701292 136 90 98
-2.12787 0.878234 15.3476 -0.700855 -0.224098 -0.677188 125 82 89
-2.10775 0.869759 15.341 -0.0349974 -0.68818 -0.724695 137 89 96
-2.08383 0.864406 15.3284 0.0739594 -0.424045 -0.902616 141 93 100
-2.05318 0.871556 15.364 -0.092015 -0.706327 -0.70188 138 91 98
-2.03819 0.867011 15.3615 0.0672385 -0.403545 -0.912486 141 94 100
-2.06229 0.888797 15.3298 0.284828 -0.377143 -0.88127 131 84 90
-2.02323 0.891583 15.3592 0.0672312 -0.403539 -0.912489 129 81 88
-2.02186 0.882503 15.3491 -0.080011 -0.701218 -0.708443 130 83 90
-1.98064 0.900738 15.3472 -0.168199 -0.111365 -0.979442 135 88 95
-1.96223 0.883592 15.3794 0.43022 -0.184439 -0.883681 130 84 90
-1.96491 0.890491 15.3422 0.179677 -0.326673 -0.927902 127 81 88
-1.61874 0.915853 15.3976 -0.11198 -0.338629 -0.934233 148 99 104
-1.63394 0.938601 15.3837 -0.219519 -0.354885 -0.908773 139 91 95
-1.63316 0.935926 15.3658 -0.11367 -0.340292 -0.933424 140 91 96
-1.60426 0.935926 15.3622 -0.113669 -0.340292 -0.933424 139 92 97
-1.5722 0.935932 15.3584 -0.113668 -0.340292 -0.933424 135 89 95
-1.54011 0.935931 15.3545 -0.113668 -0.340292 -0.933425 130 82 89
-1.39243 0.959607 15.3755 0.0117261 0.133959 -0.990918 129 81 89
-1.34644 0.961001 15.3623 -0.218496 -0.066143 -0.973594 129 81 89
-1.37307 0.939982 15.384 -0.22122 -0.0679683 -0.972853 132 83 91
-1.33234 0.939545 15.3823 -0.21863 -0.065949 -0.973577 133 84 92
-1.31873 0.964299 15.3777 -0.218629 -0.0659487 -0.973577 130 83 90
-1.31855 0.961001 15.356 -0.218495 -0.0661426 -0.973594 133 84 91
-1.30426 0.936379 15.3552 -0.215735 -0.0643211 -0.974331 135 85 92
-1.29071 0.962885 15.3626 -0.21655 -0.0650147 -0.974104 133 84 91
0.0826024 1.06682 15.0898 0.410408 -0.112383 -0.90495 85 92 128
0.861529 1.14952 15.0768 0.393941 -0.0210184 -0.918896 133 87 99
0.984064 1.14884 15.13 0.415778 -0.159907 -0.895298 63 67 105
0.957437 1.14832 15.1138 0.412554 -0.119963 -0.902999 94 107 143
0.999128 1.17306 15.1372 0.412351 -0.120413 -0.903032 69 71 107
1.87437 1.24459 15.1767 0.412494 -0.126936 -0.902073 61 66 98
1.88735 1.24098 15.1591 0.599481 -0.325401 -0.731257 58 63 94
1.92827 1.27341 15.2248 0.435824 0.258463 -0.862122 73 76 104
2.94288 1.37217 15.3534 -0.0876963 -0.228692 -0.969541 71 50 60
2.92477 1.36554 15.338 0.150324 -0.22641 -0.962362 43 27 38
-2.53344 0.855673 15.3891 -0.32575 0.229354 -0.917215 137 94 104
-2.54511 0.882583 15.3947 -0.233622 -0.180795 -0.955371 127 85 92
-2.5031 0.857042 15.3818 -0.319863 0.23029 -0.919051 137 94 104
-2.4729 0.857042 15.3713 -0.319862 0.230291 -0.919051 136 93 103
-2.42152 0.879587 15.3318 -0.321013 0.228758 -0.919032 125 80 89
-2.39105 0.880957 15.3372 -0.32086 0.228639 -0.919115 126 79 88
-2.34144 0.885117 15.3342 -0.369162 -0.585563 -0.72169 127 79 89
-2.31258 0.891817 15.314 -0.369162 -0.585563 -0.72169 132 84 93
-2.28384 0.898488 15.2939 -0.369162 -0.585563 -0.72169 138 89 97
-2.28357 0.868941 15.2949 -0.422744 -0.573797 -0.701459 133 84 92
-2.22907 0.887211 15.2973 -0.261642 -0.784045 -0.562866 131 82 90
-2.1861 0.889346 15.3068 0.120202 -0.371901 -0.920457 128 80 89
-2.15729 0.89197 15.3418 0.112445 -0.370508 -0.921998 130 83 90
-2.10975 0.895082 15.3127 -0.0360959 -0.687429 -0.725354 126 82 89
-2.12769 0.912885 15.3313 0.0534962 -0.615319 -0.786461 142 96 103
-2.07389 0.9136 15.3154 0.284827 -0.377143 -0.88127 140 93 100
-2.05485 0.899957 15.3582 -0.0804226 -0.700866 -0.708744 136 87 94
-2.02186 0.908088 15.3237 -0.0800106 -0.701218 -0.708444 138 91 98
-1.99506 0.925995 15.3561 -0.166917 -0.117106 -0.978992 140 90 97
-1.95573 0.934624 15.3458 0.426908 -0.179575 -0.886286 135 87 93
-1.83423 0.934788 15.3994 -0.0883561 -0.725885 -0.682117 139 92 99
-1.77897 0.938021 15.3971 -0.130069 -0.341899 -0.930692 141 93 100
-1.69463 0.946306 15.4422 -0.0819562 -0.328187 -0.941051 135 88 94
-1.66206 0.935926 15.3693 -0.113671 -0.340293 -0.933424 138 90 95
-1.67755 0.959637 15.3625 -0.11367 -0.340292 -0.933424 128 80 86
-1.64865 0.959639 15.359 -0.11367 -0.340292 -0.933424 128 80 87
-1.61975 0.959631 15.3555 -0.113669 -0.340292 -0.933424 127 78 86
-1.59089 0.959631 15.352 -0.113668 -0.340292 -0.933424 128 81 87
-1.55731 0.962257 15.347 -0.113668 -0.340292 -0.933425 134 88 94
-1.5143 0.957445 15.3603 0.00559196 0.140369 -0.990083 131 83 89
-1.48435 0.955127 15.3454 0.0118816 0.151734 -0.98835 130 82 89
-1.45609 0.962782 15.396 0.00801156 0.147471 -0.989034 131 84 93
-1.47094 0.988161 15.3996 0.0080114 0.147471 -0.989034 142 91 98
-1.38742 0.964751 15.3856 -0.221221 -0.0679686 -0.972852 131 83 91
-1.36121 0.991586 15.4019 -0.218722 -0.0661737 -0.973541 139 89 96
-1.33321 0.991586 15.3956 -0.218722 -0.0661737 -0.973541 138 88 95
-1.30512 0.98893 15.3722 -0.218624 -0.0659455 -0.973578 136 89 95
-1.2772 0.990222 15.3742 -0.220112 -0.0637795 -0.973387 140 91 96
2.9278 1.39683 15.3489 -0.0876966 -0.228692 -0.969541 49 32 40
4.08335 1.50352 15.2478 0.402229 -0.516228 -0.756122 123 84 87
-2.49284 0.9101 15.3714 -0.375896 0.395748 -0.837906 130 85 94
-2.46016 0.909701 15.3523 -0.373313 0.396464 -0.838721 130 86 96
-2.40437 0.908555 15.3487 -0.32086 0.228639 -0.919115 137 91 99
-2.2521 0.931963 15.327 -0.545163 -0.0488645 -0.836905 134 85 94
-2.20178 0.917109 15.2935 0.120203 -0.371901 -0.920457 142 94 102
-2.16754 0.917109 15.298 0.120202 -0.371901 -0.920457 141 93 99
-2.13845 0.917109 15.3018 0.120202 -0.371901 -0.920457 143 96 103
-2.1505 0.940928 15.293 0.280776 -0.664565 -0.692473 130 81 88
-2.07636 0.929373 15.3509 -0.376502 -0.424029 -0.823678 135 88 96
-2.05852 0.957293 15.3492 0.170413 -0.596114 -0.784607 132 84 91
-1.99378 0.949081 15.3146 -0.0796398 -0.702812 -0.706904 132 84 91
-1.96479 0.963344 15.322 -0.0897159 -0.726955 -0.680799 140 92 99
-1.92944 0.947014 15.3348 -0.0897155 -0.726955 -0.680799 128 80 86
-1.90012 0.962463 15.3516 -0.0880065 -0.725516 -0.682555 134 86 94
-1.8645 0.974317 15.3344 -0.0880066 -0.725516 -0.682555 141 94 101
-1.84647 0.970114 15.3765 -0.0413335 -0.585423 -0.809674 139 92 100
-1.81567 0.984817 15.3704 -0.0411931 -0.585315 -0.809759 140 93 100
-1.79443 0.961345 15.3877 -0.125028 -0.361262 -0.924044 128 82 90
-1.76145 0.990725 15.3929 -0.0165597 -0.568664 -0.822403 136 89 97
-1.74011 0.971456 15.4465 -0.124214 -0.370718 -0.920402 131 82 89
-1.64053 0.990252 15.388 -0.192002 -0.226058 -0.955004 135 85 92
-1.60689 0.985308 15.3581 -0.113689 -0.339365 -0.933759 137 87 94
-1.57686 0.989342 15.3626 -0.11334 -0.339441 -0.933774 137 89 95
-1.53309 0.980553 15.3546 0.00767811 0.148466 -0.988888 145 98 104
-1.51602 1.00986 15.3592 0.00767829 0.148466 -0.988888 127 79 87
-1.37559 1.01641 15.4034 -0.218723 -0.0661737 -0.973541 129 79 87
-1.34754 1.01641 15.3971 -0.218722 -0.0661736 -0.973541 128 78 84
1.90878 1.32097 15.2057 0.452481 -0.197768 -0.869568 24 19 39
2.26146 1.36376 15.2113 0.443001 -0.247338 -0.861727 127 79 85
2.94612 1.42267 15.3521 -0.0441601 -0.0127752 -0.998943 81 60 68
-2.25656 0.966838 15.3242 -0.543337 -0.0478602 -0.83815 138 89 96
-2.18687 0.962796 15.3124 -0.0461343 -0.057871 -0.997258 135 90 97
-2.15084 0.976541 15.3063 0.300096 -0.662733 -0.686095 143 94 102
-2.11843 0.980229 15.323 0.170476 -0.596184 -0.78454 141 94 100
-2.08704 0.967615 15.3351 0.170413 -0.596114 -0.784607 140 93 100
-2.02908 0.970892 15.3516 -0.0827774 -0.707134 -0.702217 136 89 98
-1.99983 0.984984 15.3574 -0.010382 -0.638728 -0.769363 140 94 101
-1.93201 0.979943 15.3365 0.0877689 -0.55399 -0.827884 142 94 101
-1.90713 1.00455 15.3589 0.0727287 -0.5523 -0.830467 122 79 84
-1.61556 1.04239 15.3941 -0.190738 -0.22818 -0.954753 139 89 95
1.0392 1.27668 15.1758 0.411343 0.217767 -0.885084 67 69 91
1.2605 1.28007 15.2343 -0.0153221 0.0589672 -0.998142 126 84 88
1.88392 1.33679 15.1569 0.44208 -0.187084 -0.877249 24 21 40
2.22426 1.39089 15.2036 0.524637 -0.486425 -0.698675 126 78 86
2.67346 1.41825 15.1899 0.0560778 -0.0863004 -0.99469 110 80 97
-2.24932 1.00396 15.3452 -0.543327 -0.0475186 -0.838176 125 76 82
-2.23271 0.986573 15.3076 -0.543338 -0.0478597 -0.838149 132 84 91
-2.18454 0.984949 15.2881 -0.0499097 -0.00684766 -0.99873 137 87 95
-2.19396 0.988671 15.327 -0.0622883 -0.00582492 -0.998041 137 87 95
-2.17981 1.0132 15.326 -0.0622879 -0.00581578 -0.998041 134 84 91
-2.07066 1.00222 15.3431 0.175701 -0.58471 -0.791987 129 81 88
-1.99983 1.01084 15.3359 -0.0103813 -0.638728 -0.769363 135 88 95
-1.95941 1.02315 15.3047 0.0877578 -0.553993 -0.827883 149 102 108
-1.93201 1.01129 15.3156 0.0877647 -0.553991 -0.827884 134 88 94
-1.88128 1.02278 15.3746 0.086837 -0.557862 -0.825378 124 80 86
-1.84686 1.02939 15.3398 -0.0411933 -0.585315 -0.809759 132 87 95
-1.81553 1.03981 15.3284 -0.0410974 -0.58531 -0.809767 142 96 104
-1.7612 1.04213 15.3492 -0.0410127 -0.584436 -0.810403 145 99 106
-1.73393 1.05616 15.3489 -0.0409742 -0.58434 -0.810474 141 92 99
-1.68485 1.05894 15.3554 -0.192011 -0.226291 -0.954947 138 91 98
2.77662 1.46467 15.1784 0.0700597 -0.219868 -0.973011 30 20 31
3.14209 1.52027 15.3455 -0.269725 -0.233591 -0.934175 113 67 74
3.4229 1.54888 15.2778 0.513255 0.0812496 -0.854381 136 89 95
3.71882 1.57065 15.3004 0.441298 -0.496218 -0.747679 51 62 80
3.78638 1.59347 15.4008 0.0584986 -0.323309 -0.944484 63 45 59
3.70597 1.5549 15.249 0.458383 -0.443826 -0.770002 60 74 93
-2.20868 1.01308 15.3266 -0.0624017 -0.00601082 -0.998033 132 83 89
-2.17188 1.03005 15.3192 0.209666 -0.336028 -0.918218 140 91 97
-1.88124 1.04921 15.3562 0.0868351 -0.557862 -0.825379 129 84 90
-1.81398 1.08289 15.3285 -0.107545 0.0545109 -0.992705 145 97 104
-1.76088 1.06736 15.3251 -0.375763 -0.722039 -0.580915 139 90 98
-1.78475 1.08302 15.3266 -0.107567 0.0543756 -0.99271 144 98 105
-1.72222 1.08603 15.3421 -0.0972368 0.0724364 -0.992622 145 99 106
1.25246 1.35792 15.2522 -0.0215439 -0.0910232 -0.995616 126 82 89
1.31371 1.3611 15.2855 -0.662729 -0.185653 -0.725481 130 85 92
3.72934 1.60489 15.3082 0.436605 -0.497604 -0.749511 51 56 72
3.69583 1.60405 15.2863 0.438288 -0.497413 -0.748655 42 40 53
3.72734 1.62221 15.2621 0.462297 -0.433655 -0.77345 61 65 82
3.75293 1.63219 15.3038 0.436605 -0.497604 -0.749511 65 77 97
4.12837 1.64092 15.1921 -0.580449 0.299203 -0.757336 125 85 90
4.12723 1.63976 15.1881 -0.574096 0.312027 -0.757003 124 85 89
-1.82917 1.10752 15.3294 -0.108077 0.0533474 -0.99271 144 94 100
-1.79998 1.10765 15.3275 -0.107558 0.0544957 -0.992704 144 94 100
-1.76449 1.10906 15.337 -0.0953907 0.0724554 -0.9928 150 100 107
-1.73577 1.10906 15.3343 -0.0953884 0.0724561 -0.9928 146 99 105
-1.70737 1.11003 15.337 -0.0971893 0.072839 -0.992597 144 97 103
0.175974 1.29645 15.2056 0.187217 -0.717255 -0.67119 68 65 94
1.01624 1.36714 15.1422 0.457306 0.0620682 -0.887141 35 37 49
3.44556 1.60291 15.2237 -0.0844588 -0.138462 -0.98676 132 89 96
3.72924 1.65309 15.2551 0.441104 -0.499572 -0.745557 64 69 85
3.72153 1.63213 15.2856 0.436605 -0.497604 -0.749511 53 60 76
-1.81343 1.13265 15.3316 -0.10796 0.0535737 -0.992711 141 91 96
-1.78531 1.13258 15.3282 -0.595371 0.0980878 -0.797441 142 92 97
-1.70592 1.15643 15.3206 -0.0975792 0.0734474 -0.992514 147 98 102
-1.69175 1.13152 15.3173 -0.097576 0.0734482 -0.992514 136 87 93
0.146239 1.30426 15.1889 0.187216 -0.717255 -0.67119 54 49 75
2.04238 1.5198 15.3303 0.399871 -0.250488 -0.88168 56 40 52
2.04234 1.51978 15.3302 0.398427 -0.242111 -0.884668 56 40 52
3.02156 1.62253 15.273 0.488456 -0.0996599 -0.866879 127 86 94
3.72162 1.68028 15.2324 0.441137 -0.499698 -0.745453 75 86 101
-1.83369 1.15619 15.3233 -0.110178 0.0521096 -0.992545 151 101 106
-1.79898 1.15754 15.3314 -0.10796 0.0535737 -0.992711 151 101 104
0.200991 1.35014 15.2275 -0.0775744 -0.8127 -0.577495 24 18 39
1.10414 1.43394 15.2031 0.655495 0.104363 -0.747953 48 56 66
3.0001 1.63299 15.3191 0.478176 -0.107909 -0.87161 121 83 90
-2.27299 1.15486 15.2252 -0.424315 -0.165231 -0.890312 129 81 86
-1.71042 1.20524 15.3157 -0.0977089 0.0730786 -0.992528 150 102 105
0.961955 1.46552 15.1151 0.455001 0.060904 -0.888406 78 77 101
4.04714 1.79272 15.2768 0.0584105 -0.564293 -0.823506 123 84 87
4.16837 1.7796 15.1532 -0.468997 0.29197 -0.833544 126 89 89
-2.28876 1.18113 15.2279 -0.424315 -0.165231 -0.890312 130 81 87
1.20584 1.54207 15.2437 0.625924 -0.115202 -0.771329 96 71 76
1.24302 1.53895 15.2569 0.0151548 -0.018695 -0.999711 119 78 85
3.32641 1.75675 15.2262 0.312092 -0.393494 -0.864732 137 92 99
3.87404 1.78742 15.2024 -0.502629 -0.410634 -0.760753 109 82 94
-2.28368 1.21843 15.2746 -0.245894 -0.0218924 -0.969049 130 85 91
0.736461 1.50911 15.1625 -0.359009 -0.191835 -0.913407 142 95 100
1.04752 1.53385 15.2335 0.646049 -0.370367 -0.66742 62 72 81
1.86106 1.62494 15.1242 -0.370494 -0.0392004 -0.928007 41 33 50
1.85904 1.62443 15.1237 -0.372026 -0.0436373 -0.927196 42 34 52
3.31572 1.78076 15.2114 0.312092 -0.393494 -0.864732 136 92 98
3.69085 1.83052 15.3489 -0.0126969 0.0320063 -0.999407 88 96 108
3.8743 1.82271 15.2016 -0.589153 -0.370141 -0.718258 115 87 98
1.02854 1.55907 15.219 0.68541 -0.168564 -0.708378 31 39 49
1.21859 1.5986 15.2401 0.627119 -0.120442 -0.769555 112 78 87
2.69969 1.75428 15.1559 0.0731976 -0.288241 -0.954756 92 76 95
3.64982 1.85618 15.3542 -0.0132246 0.0323026 -0.999391 109 94 103
3.70849 1.85647 15.3552 -0.024541 0.0281989 -0.999301 66 64 74
3.68385 1.85845 15.3626 -0.0131812 0.0322973 -0.999391 100 107 119
1.22583 1.62678 15.24 0.638903 -0.164989 -0.751386 115 81 90
1.85824 1.67655 15.1192 -0.370274 -0.0433158 -0.927912 45 35 52
2.07039 1.73349 15.2983 0.436169 -0.104073 -0.893826 89 64 71
3.65271 1.90874 15.3591 0.20679 -0.0697401 -0.975897 111 120 131
1.01561 1.62098 15.1226 0.547425 0.0265171 -0.836434 27 26 36
1.06084 1.62952 15.1977 0.672095 -0.0119509 -0.740368 23 23 32
1.15824 1.69584 15.426 -0.708324 0.0960417 -0.699323 70 64 79
1.24031 1.68313 15.2397 0.638892 -0.164955 -0.751403 119 80 86
1.24628 1.65992 15.2291 0.540563 -0.0204502 -0.841055 119 81 88
1.8541 1.72763 15.112 -0.369061 -0.0413566 -0.928485 52 41 60
4.17265 1.94982 15.1683 0.170699 0.112131 -0.978922 125 84 88
-2.05911 1.3745 15.2 0.362346 -0.0634908 -0.929879 147 102 106
-2.03105 1.3745 15.2109 0.703419 0.180426 -0.687494 150 103 106
0.902886 1.63944 15.0857 0.459089 -0.0943836 -0.883362 139 104 115
1.01421 1.64995 15.1226 0.547421 0.0265124 -0.836437 29 27 38
2.43808 1.82467 15.1396 -0.0847299 -0.0266212 -0.996048 120 73 79
2.46979 1.82467 15.1369 -0.0847297 -0.0266211 -0.996048 120 72 79
2.47009 1.8249 15.1366 -0.0833086 -0.0997908 -0.991515 119 72 79
2.69685 1.82916 15.1581 -0.0246474 -0.133164 -0.990787 97 78 94
2.95498 1.9032 15.354 -0.575135 -0.201494 -0.792855 61 42 53
2.95502 1.90319 15.3539 -0.575135 -0.201494 -0.792855 61 42 54
-2.31765 1.36555 15.3187 -0.443843 -0.0359781 -0.895382 131 87 92
-2.1015 1.39957 15.194 -0.0400901 -0.151242 -0.987684 139 93 95
-2.08745 1.3745 15.194 0.206224 -0.0283028 -0.978095 151 105 107
-2.07313 1.39957 15.1963 0.206307 -0.0286571 -0.978068 134 90 93
-2.04448 1.40052 15.2039 0.495793 -0.399619 -0.771034 133 89 92
0.380588 1.63413 15.2033 -0.19716 -0.189899 -0.961804 131 88 92
1.01487 1.70483 15.1273 0.658096 -0.124461 -0.742576 28 27 39
1.07043 1.70796 15.1949 0.670441 -0.243288 -0.700942 25 25 33
1.15356 1.72025 15.1545 0.643722 -0.146839 -0.75104 44 32 40
1.23429 1.7309 15.2275 0.6383 -0.159992 -0.752978 119 85 90
1.85075 1.77897 15.1061 -0.365726 -0.0405309 -0.929839 54 45 66
2.69674 1.87839 15.1514 0.0110203 -0.0928776 -0.995617 95 78 95
2.71736 1.87527 15.1367 -0.0310623 -0.138656 -0.989853 65 57 75
2.97073 1.92601 15.3367 -0.575135 -0.201494 -0.792855 95 71 79
3.52628 1.95845 15.2242 0.0322659 -0.218948 -0.975203 127 94 105
-2.48133 1.39646 15.2868 -0.375447 -0.31483 -0.871735 144 99 102
-2.08731 1.42422 15.195 0.0829887 -0.00368211 -0.996544 142 97 100
-2.05949 1.42709 15.213 0.396641 0.374723 -0.838009 142 97 100
-1.8153 1.46267 15.26 0.187673 -0.072465 -0.979555 139 93 96
-1.60876 1.49806 15.2871 0.0195588 0.0240128 -0.99952 144 96 100
-1.62036 1.49059 15.2405 0.0847838 -0.0247717 -0.996091 144 96 100
0.0753481 1.64193 15.0985 0.499356 0.0727737 -0.863335 94 89 111
0.388872 1.67207 15.1856 -0.353747 -0.177364 -0.918371 128 84 87
0.882606 1.70654 15.0358 -0.137147 -0.0232315 -0.990278 123 81 92
1.01982 1.72948 15.1233 0.662962 -0.183069 -0.725925 29 29 38
1.05036 1.74341 15.1653 0.668938 -0.242687 -0.702584 27 27 36
1.20387 1.77133 15.2077 0.617621 0.174178 -0.766946 92 71 77
1.86409 1.80492 15.0992 -0.36565 -0.0404144 -0.929875 42 35 56
1.86851 1.80629 15.1058 0.0721097 0.023808 -0.997113 44 37 57
1.84536 1.8296 15.0969 -0.359359 -0.0444262 -0.932141 59 51 74
1.84582 1.82977 15.0977 -0.348758 -0.0447275 -0.936145 58 51 73
2.11796 1.87871 15.2765 0.301755 -0.49018 -0.817721 113 76 85
2.50444 1.88746 15.1868 -0.127881 -0.133209 -0.982803 120 72 78
2.66207 1.9154 15.1186 -0.0305794 -0.0765184 -0.996599 124 94 104
2.70872 1.90209 15.1437 0.00288324 -0.108885 -0.99405 78 67 83
3.78594 2.0692 15.4018 0.183281 -0.0234165 -0.982782 49 29 40
3.78594 2.0692 15.4018 0.183281 -0.0234165 -0.982782 49 29 40
-2.13127 1.44955 15.1911 0.366282 0.413628 -0.833516 144 97 101
-2.10219 1.44955 15.1953 0.142239 0.0951382 -0.98525 145 98 101
-2.07441 1.45249 15.2133 0.142202 0.0951728 -0.985252 142 97 100
-2.05 1.44935 15.2003 0.142816 0.110115 -0.983605 142 97 101
0.23569 1.71642 15.2528 0.541886 -0.100367 -0.834438 51 53 65
0.375245 1.69821 15.1921 -0.353868 -0.177525 -0.918293 126 84 90
0.37408 1.69744 15.1884 -0.353737 -0.177115 -0.918423 125 84 89
0.924846 1.73681 15.0427 0.658094 -0.124451 -0.742579 104 96 112
0.908201 1.75518 15.0281 0.65797 -0.123504 -0.742847 116 88 98
1.02256 1.77954 15.1292 0.674572 0.0258328 -0.737757 32 31 40
1.06801 1.79207 15.1653 0.668938 -0.242687 -0.702584 30 30 40
2.68995 1.95253 15.1419 0.118283 0.0097306 -0.992932 106 84 97
2.70433 1.92791 15.1448 -0.00335713 -0.115403 -0.993313 91 75 91
3.68921 2.06467 15.3686 0.191211 -0.0198049 -0.981349 97 93 103
-2.15272 1.47764 15.1956 0.366283 0.413628 -0.833516 142 96 98
-1.57968 1.54841 15.2888 0.0195498 0.0240135 -0.99952 147 99 102
0.0506442 1.70391 15.068 0.562845 0.0357081 -0.82579 116 105 124
0.193893 1.72417 15.2247 0.541886 -0.100367 -0.834438 31 34 43
0.372267 1.74849 15.1845 -0.353863 -0.177491 -0.918302 123 81 86
0.930438 1.76555 15.0423 0.658096 -0.12446 -0.742576 107 99 117
0.935881 1.79434 15.0423 0.658096 -0.124461 -0.742576 105 100 119
1.02061 1.8122 15.1275 0.673604 0.0297533 -0.738493 32 31 38
1.21521 1.86005 15.4479 -0.709745 0.100474 -0.697257 56 41 51
1.84929 1.88342 15.1021 -0.365726 -0.0405311 -0.92984 58 51 72
1.84693 1.88225 15.0957 -0.364546 -0.0410124 -0.930282 57 49 67
2.15607 1.94854 15.2701 0.284363 -0.0852646 -0.954918 125 84 91
2.18312 1.94854 15.2782 0.284363 -0.0852646 -0.954918 124 81 88
2.65896 1.97067 15.1116 -0.0278628 -0.140507 -0.989688 124 92 100
2.68837 1.97067 15.1108 -0.0278629 -0.140507 -0.989687 103 84 97
3.77664 2.13964 15.3829 0.16748 -0.046139 -0.984795 52 32 43
4.55989 2.27658 15.8365 -0.0658181 -0.881666 -0.467261 117 84 95
-2.14785 1.52097 15.2075 -0.189499 -0.0781138 -0.978769 138 93 96
0.199273 1.75307 15.2248 0.541886 -0.100367 -0.834438 36 38 48
2.69726 2.02718 15.1384 -0.104801 0.0867377 -0.990704 104 84 102
2.73682 2.00036 15.1288 -0.0304223 -0.13354 -0.990577 58 51 70
2.75103 2.02494 15.1251 -0.0304236 -0.13354 -0.990576 50 44 60
4.04213 2.18789 15.2629 -0.047691 -0.152117 -0.987211 128 95 96
1.85346 1.93593 15.098 -0.36419 -0.0415767 -0.930396 40 37 60
2.74091 2.05264 15.1319 -0.104139 0.091421 -0.990352 63 54 72
4.01378 2.18789 15.2643 -0.047691 -0.152117 -0.987211 129 95 97
4.02778 2.21218 15.2599 -0.047691 -0.152117 -0.987211 122 90 92
4.05633 2.21201 15.2577 -0.0476741 -0.152101 -0.987215 120 88 90
-0.665105 1.75745 15.2743 -0.420106 -0.371074 -0.828139 131 88 93
-0.290964 1.78249 15.1513 -0.229735 -0.337588 -0.912829 126 79 83
0.57067 1.87505 15.1739 -0.158719 0.0994192 -0.982305 139 93 97
0.953853 1.89505 15.0908 0.526889 -0.0270611 -0.849504 94 90 109
0.974391 1.87952 15.1041 0.526882 -0.0270702 -0.849508 50 47 68
0.974352 1.90691 15.0985 0.527343 -0.0259461 -0.849256 48 49 71
1.84904 1.98498 15.0835 -0.362792 -0.0412525 -0.930957 57 50 72
2.03855 2.02045 15.2224 0.356275 -0.0703142 -0.931732 63 49 59
3.5261 2.10269 14.6512 -0.0322416 -0.906355 -0.421286 123 87 91
3.90855 2.23518 15.2478 0.0655929 -0.0105579 -0.997791 113 82 87
-2.35431 1.58565 15.1774 0.0222755 -0.623595 -0.78143 136 91 94
0.555835 1.90173 15.1788 -0.00430135 0.0901483 -0.995919 127 82 86
0.954015 1.92264 15.0861 0.527355 -0.0259399 -0.849249 94 91 110
0.975774 1.93583 15.0985 0.527343 -0.0259462 -0.849256 46 47 66
1.01289 1.92838 15.1057 0.527335 -0.0259338 -0.849262 30 30 44
1.18356 1.96987 15.1986 0.325005 -0.0511862 -0.944326 72 55 59
1.27756 1.99441 15.2308 0.325001 -0.051185 -0.944328 120 81 82
1.83457 2.01113 15.0879 -0.294304 -0.0103228 -0.955656 86 78 100
4.04277 2.28803 15.3501 0.321221 0.387396 -0.864142 106 77 85
4.07108 2.28729 15.358 0.10123 0.402051 -0.910004 111 82 88
-2.37044 1.61025 15.169 -0.0854033 -0.370275 -0.924988 149 104 106
0.954283 1.95085 15.0831 0.527306 -0.0257654 -0.849285 89 89 111
1.01976 1.96268 15.125 0.527343 -0.0259462 -0.849256 30 29 46
1.18042 2.03036 15.4359 -0.711001 0.172758 -0.681639 82 75 98
1.74605 2.02994 15.0714 -0.346471 -0.0630506 -0.93594 130 93 99
1.84862 2.03673 15.0833 -0.294304 -0.0103228 -0.955656 59 52 75
3.46358 2.2842 15.3675 -0.399326 -0.379398 -0.834623 115 76 81
4.05334 2.31356 15.3676 -0.0160514 0.226709 -0.97383 59 41 53
-2.4777 1.64903 15.2253 -0.0777847 -0.366468 -0.927173 137 93 94
-2.33115 1.64473 15.1966 -0.0843466 -0.368023 -0.925983 135 91 93
-0.59749 1.83539 15.2249 -0.292374 -0.258713 -0.920644 145 99 103
1.84966 2.08866 15.0873 -0.134566 -0.0309433 -0.990421 65 58 81
1.86813 2.10945 15.1278 0.317645 -0.178776 -0.931204 34 37 58
1.90648 2.11618 15.1811 0.464256 -0.189649 -0.865159 30 34 51
3.22415 2.20839 14.9473 -0.0561546 -0.776629 -0.627451 120 83 86
-4.27949 2.55504 21.6181 0.184875 -0.568425 -0.801695 17 20 35
-3.56968 2.48912 20.8741 0.0166996 0.485807 -0.873907 26 31 44
-2.49383 1.67446 15.2214 -0.0781416 -0.366393 -0.927173 146 103 103
-2.3922 1.68766 15.1637 -0.20459 -0.252136 -0.945817 144 102 103
-2.24246 1.71335 15.2544 0.587081 -0.417434 -0.693603 135 88 97
1.87978 2.13486 15.1368 0.317859 -0.178814 -0.931124 52 58 84
1.89637 2.13987 15.1704 0.602623 0.0175041 -0.797834 52 58 83
3.46643 2.33587 15.3584 -0.532206 -0.23486 -0.813387 102 81 94
4.14662 2.41849 15.4509 0.157544 -0.26065 -0.952492 58 73 94
4.14741 2.4201 15.4542 0.431323 -0.541553 -0.721583 59 74 95
-3.60646 2.55253 21.002 0.133895 0.446184 -0.884868 36 47 62
-3.34479 2.6254 21.0237 -0.668808 0.392226 -0.631549 97 115 141
-2.48719 1.70204 15.1996 -0.0856467 -0.374706 -0.923179 148 103 104
-2.46849 1.7313 15.2211 -0.0749779 -0.398393 -0.914145 146 100 101
-2.42009 1.72718 15.1902 0.233419 -0.443186 -0.865507 145 99 104
-2.44434 1.72587 15.1906 -0.08286 -0.38664 -0.918501 147 101 104
-2.34554 1.72023 15.1657 -0.0803548 -0.368087 -0.926313 141 99 100
-0.10423 1.95875 15.0768 -0.609802 0.454476 -0.649302 131 84 86
0.981645 2.03864 15.0194 0.210141 -0.261972 -0.941919 52 52 70
1.32459 2.12353 15.2419 0.319927 -0.0509446 -0.946072 126 80 87
1.84413 2.15141 15.0892 0.404096 -0.104579 -0.908719 93 99 129
1.8187 2.15141 15.0779 0.250103 -0.098407 -0.963205 127 120 144
2.03525 2.22691 15.3654 -0.257352 -0.0933393 -0.961799 66 63 78
3.47844 2.38132 15.4031 -0.025004 -0.845517 -0.533363 87 88 105
3.51405 2.39308 15.3713 -0.586832 -0.264299 -0.765359 89 105 126
3.50726 2.38132 15.4082 -0.172535 -0.800243 -0.57432 86 95 113
4.12423 2.46345 15.4077 0.482033 -0.360903 -0.798369 72 89 113
4.10755 2.44059 15.4079 0.482885 -0.359964 -0.798278 59 75 100
-3.22138 2.65528 20.9277 -0.673101 0.393122 -0.62641 104 121 149
-2.55098 1.73425 15.2436 -0.0879395 -0.387575 -0.917634 146 100 99
0.996405 2.10679 15.0867 0.508337 -0.166684 -0.844873 26 30 54
1.01192 2.08657 15.1 0.508337 -0.166684 -0.844873 23 27 51
1.25627 2.14058 15.2135 0.282294 -0.252074 -0.925618 117 75 82
1.26736 2.12964 15.1693 0.306104 -0.246998 -0.919398 124 78 85
2.01863 2.25534 15.3671 -0.308445 -0.837225 -0.451571 70 72 102
2.44157 2.27985 15.181 -0.589326 -0.0690248 -0.804942 134 92 96
2.88436 2.34704 15.3142 -0.136902 0.303396 -0.942979 109 126 153
3.10086 2.35676 15.3812 0.119697 -0.183447 -0.975715 65 64 82
3.08298 2.37895 15.3692 0.119772 -0.183444 -0.975706 76 88 111
3.21301 2.40448 15.3892 0.138014 -0.207635 -0.968421 71 85 106
3.4946 2.40459 15.3958 0.160132 -0.396284 -0.904056 81 97 117
3.52569 2.41618 15.3507 -0.436543 -0.401338 -0.805206 97 117 140
3.69291 2.42508 15.3777 -0.635119 0.0200191 -0.772155 131 156 180
4.03504 2.4608 15.3625 0.0850418 -0.0246903 -0.996071 51 73 103
4.06151 2.4614 15.3722 0.418994 -0.0916308 -0.903354 49 69 99
4.06113 2.4608 15.3693 0.442702 -0.0677762 -0.894104 49 69 99
4.26817 2.4972 15.3757 0.193396 -0.543627 -0.816742 120 145 171
4.33691 2.52344 15.4233 -0.0689479 -0.143978 -0.987176 136 163 187
-4.46402 2.68499 21.5126 -0.388173 -0.291897 -0.874138 75 90 116
-2.35464 1.79359 15.2648 -0.00341576 0.0481866 -0.998832 137 90 95
0.926183 2.09945 15.04 -0.198638 -0.0718325 -0.977437 105 91 107
0.94145 2.12722 15.035 -0.19863 -0.0718378 -0.977438 102 99 121
1.01638 2.14572 15.1225 0.634077 -0.154052 -0.757769 51 53 74
1.19887 2.1716 15.2216 0.272987 -0.256685 -0.927141 91 66 79
2.26749 2.27978 15.2371 -0.122163 -0.0118836 -0.992439 126 85 90
3.19674 2.42655 15.3765 -0.382754 -0.595397 -0.7064 86 103 128
-4.27737 2.71428 21.1587 -0.127422 -0.417723 -0.899595 135 155 182
-1.76223 1.91159 15.2755 0.153264 -0.484504 -0.861258 133 91 92
-0.485799 2.01384 15.1941 -0.0802108 -0.208185 -0.974795 141 97 101
0.161704 2.09396 15.1026 0.528224 -0.0950674 -0.843766 31 36 54
0.30518 2.16309 15.4015 -0.924219 -0.118034 -0.363164 89 84 99
1.66963 2.22783 15.047 -0.347475 0.665065 -0.661021 137 93 100
3.21121 2.44993 15.3728 0.207522 -0.149489 -0.966741 95 113 139
3.23458 2.44879 15.3685 0.124796 -0.227059 -0.965852 94 112 138
3.30578 2.47449 15.3787 0.0748972 -0.062703 -0.995218 94 115 141
3.36713 2.467 15.3305 0.163124 -0.394944 -0.904107 102 125 151
3.4834 2.48836 15.3296 -0.0109789 -0.419805 -0.907548 117 140 165
4.45761 2.60358 15.4101 0.211751 -0.0143215 -0.977219 147 173 198
4.4348 2.60091 15.3909 0.366058 0.25994 -0.893551 148 174 201
-2.75537 1.82926 15.3069 -0.132692 -0.375168 -0.91741 129 126 144
2.14286 2.36145 15.2937 0.234619 -0.0303174 -0.971615 72 72 95
2.19263 2.37545 15.3214 -0.180726 -0.383982 -0.905481 70 70 91
3.46883 2.51106 15.3192 -0.0109812 -0.419805 -0.907548 120 143 169
3.98077 2.57659 15.3432 0.175126 -0.00114162 -0.984545 124 152 177
4.09499 2.59714 15.3487 0.30365 -0.037709 -0.952037 72 94 128
4.3153 2.61309 15.3755 -0.015193 -0.10277 -0.994589 146 172 198
4.34529 2.61309 15.3772 0.0557262 -0.0365291 -0.997778 145 172 199
4.44826 2.62465 15.3935 0.212353 -0.0127222 -0.97711 149 176 201
4.42147 2.62465 15.3877 0.357516 0.129843 -0.924837 149 176 203
-2.74717 1.86038 15.3236 -0.1528 -0.414488 -0.897136 132 132 153
-2.52811 1.86253 15.2371 0.148694 -0.421936 -0.894349 132 91 97
-2.56136 1.88663 15.2588 -0.12895 -0.3872 -0.912934 142 100 103
-2.56137 1.88663 15.2588 -0.12895 -0.3872 -0.912934 142 100 103
0.292975 2.17659 15.2508 -0.593855 -0.133668 -0.793391 80 69 87
1.84667 2.33996 15.129 0.401154 0.43755 -0.804752 100 111 138
2.20574 2.40089 15.3115 -0.237636 -0.244537 -0.940069 83 95 119
2.81547 2.47429 15.3357 -0.129297 -0.244004 -0.961116 131 153 179
2.84513 2.47428 15.3317 -0.129295 -0.244004 -0.961116 132 152 179
3.21031 2.51301 15.331 0.375113 0.366353 -0.851514 116 142 167
3.44792 2.53678 15.3263 0.164451 -0.395148 -0.903778 122 146 172
3.47488 2.56433 15.3414 0.177475 -0.423164 -0.888501 124 147 175
4.1144 2.61798 15.3283 -0.271427 -0.170262 -0.94728 90 111 144
4.34556 2.66437 15.3724 -0.229894 -0.137801 -0.96341 148 175 202
-4.12895 2.79867 20.7316 0.907182 -0.219073 -0.359204 133 152 180
-1.72094 2.00256 15.2167 0.151429 -0.483935 -0.861903 136 95 97
0.652135 2.22018 15.0478 -0.433155 -0.218293 -0.874485 142 96 101
1.86684 2.3768 15.1912 -0.0241995 0.312261 -0.949688 103 120 143
2.44156 2.44225 15.1839 0.465483 0.289182 -0.83648 103 120 145
2.6268 2.49241 15.2818 -0.0930506 -0.579628 -0.809551 112 132 158
2.85911 2.4994 15.3235 -0.129302 -0.244004 -0.961116 132 153 179
2.94924 2.53069 15.3294 0.435439 0.290564 -0.852036 142 165 189
3.16686 2.54444 15.3312 0.059361 -0.119048 -0.991113 129 153 177
3.18198 2.5706 15.3355 0.0211254 0.261135 -0.965071 130 155 179
